ncols        394
nrows        60
xllcorner    -102.32228536
yllcorner    18.0736962902
cellsize     0.000833265373
NODATA_value 32767
120 117 120 120 121 131 139 139 117 108 102 99 121 120 118 112 112 119 121 120 125 137 142 156 159 151 159 160 159 159 159 165 171 180 180 190 181 179 177 182 171 201 199 196 221 220 220 221 219 218 218 220 219 220 226 238 222 216 201 207 200 222 198 189 191 188 184 181 177 177 177 180 178 177 175 165 158 161 171 176 179 180 180 176 179 179 180 198 200 198 202 204 200 183 179 175 172 178 180 180 177 183 198 198 198 205 213 218 216 204 199 198 197 199 186 178 174 178 196 186 178 177 174 182 201 201 192 202 229 239 251 231 232 272 294 269 242 218 245 228 199 203 187 166 152 156 147 105 89 78 45 40 40 40 58 81 107 141 157 158 126 164 201 144 161 132 100 87 82 40 40 40 40 40 40 40 40 40 40 40 66 80 78 100 100 106 101 116 137 116 121 120 131 131 139 149 151 155 160 163 185 199 228 217 208 248 246 279 289 322 373 370 335 303 281 258 222 205 197 200 200 199 194 196 219 199 196 226 261 268 288 304 292 295 287 281 279 301 316 299 280 274 267 242 237 275 284 306 339 364 401 359 319 294 278 269 274 239 255 265 306 305 264 224 201 209 212 214 237 225 213 222 257 271 244 238 235 233 239 247 241 240 250 252 256 277 285 289 311 300 276 262 221 207 217 241 262 302 299 263 240 240 212 241 277 259 276 304 290 275 299 337 366 406 442 442 423 409 396 395 390 399 378 396 412 444 497 537 565 566 579 570 552 527 492 459 420 399 376 370 353 360 376 378 322 333 301 272 238 242 254 284 319 276 298 341 393 375 431 429 422 443 431 393 396 389 381 365 317 291 277 272 285 319 301 344 358 350 335 304 272 235 219 235 281 288 339 350 301 285 305 296 287 323
120 119 118 117 120 119 123 128 110 100 93 104 114 115 110 108 110 115 136 137 144 120 135 139 132 137 137 160 153 149 155 153 151 158 168 179 163 175 179 164 168 181 200 201 200 219 220 220 220 220 219 219 220 220 219 221 220 214 198 197 196 216 199 186 179 182 181 180 180 181 172 178 180 179 176 164 157 158 160 173 180 179 177 173 176 178 179 191 194 193 189 200 198 200 188 180 172 172 173 175 179 190 200 194 197 210 220 212 209 211 209 200 195 183 188 178 189 197 201 202 189 180 176 180 198 209 214 246 230 259 257 281 261 303 331 319 274 269 241 200 184 172 153 139 127 111 101 93 84 84 65 40 40 40 40 40 65 94 87 99 77 113 134 125 128 109 104 97 90 57 40 40 40 40 40 40 40 40 40 43 63 73 79 93 99 101 102 128 137 142 139 119 121 128 154 199 186 185 161 160 174 199 191 180 212 242 226 238 259 302 341 360 326 287 261 256 259 236 214 200 194 221 199 183 188 186 204 229 238 249 263 271 299 293 273 268 280 299 301 303 299 278 248 234 246 280 300 324 332 348 382 359 319 296 301 295 326 303 247 240 269 300 258 211 200 217 233 224 220 219 207 226 235 250 243 230 223 219 226 235 231 234 239 237 239 240 261 263 275 269 283 246 232 206 212 235 255 294 301 279 262 213 235 260 275 258 287 297 263 265 281 312 350 399 410 432 422 408 393 384 382 379 366 372 401 442 494 497 527 538 532 533 536 505 493 446 408 385 375 376 369 361 360 356 377 364 340 297 244 249 228 235 266 253 279 339 350 357 423 413 390 398 410 387 366 368 360 348 301 281 288 289 256 267 301 347 359 349 344 339 300 233 225 243 248 274 342 350 320 283 280 282 292 305
118 121 115 122 120 120 120 117 100 95 99 110 102 105 126 131 120 123 144 160 160 131 122 129 139 166 157 139 142 160 181 178 175 158 163 156 160 200 192 195 203 200 207 219 208 217 219 220 220 220 219 220 220 219 219 220 205 203 200 200 195 193 200 187 182 177 179 180 179 180 174 172 179 179 179 168 159 155 156 168 176 180 178 168 170 175 180 180 179 181 180 201 195 183 181 178 171 168 175 181 199 198 192 199 200 200 211 212 201 199 208 209 202 196 200 188 179 200 207 207 200 196 186 197 197 220 241 275 271 284 292 278 295 324 352 359 331 283 242 240 214 179 171 142 125 116 109 81 63 65 55 40 40 40 40 40 40 40 40 40 40 58 70 89 88 95 104 89 57 40 40 40 40 40 40 40 58 53 60 64 76 86 99 99 98 91 94 109 107 120 112 105 122 141 153 198 209 166 140 162 155 167 158 180 220 222 206 255 281 300 335 359 336 310 299 281 283 260 239 212 199 199 218 179 177 187 205 218 220 239 249 279 294 303 294 251 275 289 297 284 294 272 236 232 269 291 312 337 356 366 390 361 340 312 325 324 314 282 269 249 230 261 245 211 197 213 231 253 242 219 199 223 219 225 232 234 218 217 219 222 220 219 221 220 233 227 248 229 228 232 253 246 232 204 203 223 246 261 274 260 249 218 216 214 234 234 267 291 254 256 267 303 338 352 356 381 418 398 386 380 359 350 354 367 399 436 446 473 518 539 524 498 488 474 467 434 409 386 375 381 374 358 348 346 359 362 359 312 254 229 220 220 221 243 278 328 319 362 408 414 414 373 360 384 348 341 337 332 302 342 329 340 304 245 267 296 317 336 327 320 276 254 216 222 246 299 347 329 304 277 270 261 282 282
119 120 117 118 120 120 120 116 95 88 108 119 103 113 131 140 142 138 140 153 158 160 137 122 139 155 170 182 189 188 185 180 200 172 172 189 177 179 197 199 199 199 205 214 217 220 220 219 220 220 213 218 217 219 219 217 222 207 197 198 193 185 185 180 177 173 178 179 176 178 175 168 178 179 177 165 158 154 159 180 159 172 179 166 164 173 179 180 175 174 183 201 200 180 178 176 163 171 177 178 195 192 193 200 199 199 202 212 198 198 200 205 212 206 204 218 200 199 218 220 220 203 203 217 200 214 217 226 254 294 294 295 296 306 330 356 364 343 301 276 238 227 181 150 161 148 120 99 86 61 52 62 69 40 40 40 40 40 40 40 40 40 40 45 52 81 104 97 40 40 40 40 40 40 40 55 80 47 61 65 77 96 100 91 79 80 79 92 99 103 101 96 104 125 134 173 210 164 130 165 150 141 146 177 200 185 194 220 232 283 289 326 349 340 323 298 289 260 236 240 207 181 193 179 179 191 207 219 234 249 266 280 284 283 288 239 279 290 296 265 272 249 229 240 267 303 314 335 355 390 402 377 345 322 332 353 323 302 278 253 236 216 207 199 196 214 252 261 248 230 216 198 206 207 213 219 210 212 219 220 217 209 206 210 211 210 217 217 212 206 208 206 205 199 204 219 232 243 241 226 238 247 227 199 201 219 260 279 239 246 269 294 319 305 312 365 369 385 379 353 333 340 356 372 389 387 435 455 480 520 560 542 522 490 472 443 417 388 372 359 354 360 339 340 337 332 358 343 309 287 289 262 218 234 269 290 300 349 360 379 410 393 340 367 357 329 326 318 338 369 379 389 338 280 242 247 271 315 292 284 231 203 222 218 259 302 359 329 288 265 259 259 258 261
102 112 115 120 119 120 120 131 101 95 112 120 121 120 136 140 139 140 141 144 149 156 160 167 171 159 163 161 179 195 195 198 200 186 174 200 201 199 202 199 199 200 200 208 219 219 216 215 220 217 206 206 212 216 218 219 220 215 201 196 190 186 179 179 179 177 171 170 170 170 169 166 174 178 174 161 155 155 159 167 158 169 175 161 159 168 177 176 169 178 189 199 181 178 177 163 164 179 180 180 200 181 185 197 198 198 200 194 191 200 199 199 205 219 219 217 195 205 239 222 220 209 215 220 226 220 234 240 237 256 271 328 334 335 339 369 394 399 363 314 264 238 196 191 191 152 120 101 61 58 80 91 93 60 46 40 40 40 40 40 40 40 40 40 40 59 77 91 81 65 40 40 40 40 40 40 52 40 40 56 63 67 68 73 78 78 79 99 105 99 100 93 101 106 124 160 191 145 120 147 143 132 139 164 179 168 177 193 238 252 268 319 349 342 328 300 300 267 225 220 197 179 179 196 193 201 208 223 259 274 299 291 259 284 293 235 267 294 299 258 252 230 233 239 268 290 307 330 342 375 402 391 371 357 350 354 316 298 283 281 284 263 239 202 193 210 254 248 236 232 216 203 199 207 211 208 203 206 216 220 219 209 201 199 202 200 202 202 202 200 197 199 200 198 203 214 220 205 219 206 231 259 250 197 181 206 238 260 227 249 268 287 274 271 302 315 321 341 331 318 315 350 360 355 350 398 407 434 461 494 538 547 519 487 467 435 406 386 360 370 374 359 366 375 375 334 325 358 334 298 320 303 254 212 229 244 280 313 318 366 374 382 346 334 363 316 326 346 376 402 429 402 340 323 286 234 232 274 267 250 220 228 241 247 271 323 361 333 277 251 255 275 285 275
83 97 99 108 121 118 124 140 102 95 111 119 120 116 124 132 141 132 135 139 140 160 160 177 183 181 180 180 180 178 180 184 201 196 186 178 182 197 199 198 198 200 200 199 211 214 206 201 202 200 199 200 213 219 219 220 219 216 200 194 198 214 196 186 185 181 180 177 169 164 163 162 170 179 176 164 158 154 159 157 159 162 163 160 159 159 165 172 161 180 178 180 178 179 158 159 176 180 180 183 189 177 180 199 200 196 192 183 201 200 196 210 219 219 219 200 198 211 218 219 216 219 220 227 242 241 266 259 278 298 300 333 359 376 387 370 368 383 361 319 258 234 238 222 185 152 120 104 74 82 103 133 106 90 101 104 118 99 54 68 40 40 40 40 40 40 70 76 45 40 40 40 40 40 40 40 40 40 40 40 40 43 40 74 82 83 99 119 103 97 93 95 105 104 113 140 146 138 115 123 118 137 146 145 151 161 194 200 216 249 281 320 326 322 294 279 270 238 205 189 183 171 193 200 207 199 206 233 255 293 288 247 259 289 275 239 241 278 280 260 241 222 251 257 273 309 340 335 346 378 388 360 341 343 338 354 329 319 298 328 302 256 237 209 191 204 239 234 219 219 212 196 215 220 213 199 198 200 207 217 219 208 199 197 200 201 197 197 200 196 191 195 199 196 202 203 201 199 185 187 200 219 223 188 179 195 215 242 215 235 242 268 257 260 280 279 286 289 285 287 310 353 351 333 356 366 395 424 445 491 537 537 501 484 448 444 419 398 380 413 379 357 391 414 390 357 319 331 335 305 313 318 297 234 209 239 281 298 316 339 350 374 350 310 351 307 328 373 388 423 418 384 378 392 338 276 220 225 224 221 198 248 305 316 293 344 340 302 277 251 266 289 310 314
67 67 81 98 111 120 119 127 107 85 93 99 102 121 117 118 125 119 140 159 155 159 152 156 157 167 179 179 179 180 198 200 211 206 197 196 195 200 199 200 196 198 198 200 209 202 200 200 199 199 199 200 212 220 220 220 218 202 199 210 218 220 200 200 196 180 179 177 176 172 161 159 161 174 175 166 160 155 154 155 160 159 160 159 156 157 160 160 158 165 172 177 165 179 165 159 170 179 176 179 178 182 201 200 197 187 180 179 191 194 199 204 207 213 215 205 200 209 217 211 214 220 222 237 246 261 304 298 294 324 318 345 363 402 375 337 338 327 313 284 256 221 201 193 173 161 160 124 84 111 113 158 135 116 120 126 111 93 100 95 75 40 40 40 40 40 56 51 40 44 40 40 40 40 40 40 40 40 40 40 43 40 40 40 66 102 106 116 96 91 81 100 121 106 101 113 119 130 124 110 116 157 189 189 170 165 185 199 208 244 275 280 294 300 299 289 259 236 198 179 178 172 196 200 200 200 215 217 240 269 259 241 267 291 290 246 218 257 242 236 224 220 255 271 304 322 325 299 320 341 382 359 320 323 319 321 324 299 323 330 302 250 216 201 192 197 222 221 219 204 218 189 212 213 214 206 202 197 199 223 217 208 201 197 193 203 195 190 190 188 188 188 191 193 199 199 199 197 187 178 180 184 200 185 175 188 205 242 204 210 238 235 229 251 259 270 240 243 260 293 344 366 340 316 341 365 391 405 443 472 515 531 479 455 414 417 400 388 417 417 369 369 399 423 390 352 334 309 311 317 315 304 280 253 208 222 269 281 299 292 326 342 343 292 294 291 305 326 380 426 412 410 422 416 344 287 239 216 200 197 214 259 301 306 337 322 288 255 249 247 288 296 329 320
76 67 68 74 89 107 104 120 121 90 86 97 115 116 120 115 117 118 140 159 158 180 181 178 179 167 171 171 176 180 196 200 219 220 212 196 203 199 200 200 197 193 194 199 209 201 201 199 198 198 199 199 208 217 219 220 220 216 207 211 230 242 214 199 199 184 179 180 179 178 167 161 159 159 163 160 158 160 151 153 160 160 171 172 159 155 158 157 159 159 168 175 156 177 158 158 157 161 165 173 178 181 201 200 201 180 179 178 181 195 200 198 200 211 213 205 200 199 204 200 206 216 220 241 254 299 326 331 313 324 350 340 359 396 388 337 301 277 279 256 221 200 187 180 173 156 148 125 95 127 141 163 150 139 133 137 113 143 110 82 57 40 40 40 40 40 40 40 40 40 40 40 40 40 40 40 40 40 40 40 40 40 40 52 65 73 105 96 79 80 77 89 94 93 94 100 109 118 112 101 132 153 186 188 170 191 193 183 199 206 232 260 282 280 294 284 279 240 200 177 170 176 182 181 223 208 201 223 245 225 231 245 269 279 272 253 218 235 229 214 216 235 248 279 301 295 316 289 313 342 379 362 334 298 288 293 291 298 323 296 261 224 200 192 188 199 222 219 214 200 201 185 200 200 218 220 207 196 200 223 216 207 200 198 199 192 187 182 182 183 195 197 190 200 199 195 195 188 183 180 175 181 179 180 172 180 190 214 190 209 213 223 207 226 257 257 214 236 290 333 362 360 330 312 334 360 379 406 413 442 489 516 498 456 416 381 399 375 420 403 383 404 402 391 363 348 333 319 299 309 321 274 275 262 220 200 229 237 266 249 269 320 332 291 268 280 291 327 366 408 438 440 438 405 345 308 297 243 205 212 254 283 278 302 346 329 264 240 274 299 317 334 362 367
101 88 82 76 72 94 100 121 121 102 82 100 120 116 118 123 139 122 139 156 165 180 180 178 179 181 185 195 175 178 186 201 212 211 220 214 201 202 201 200 197 193 192 199 200 197 200 198 197 195 199 200 206 216 220 220 220 220 219 218 242 237 219 214 194 199 182 178 178 172 167 175 164 158 157 156 155 154 158 149 153 160 160 163 160 157 150 152 158 161 176 169 157 159 160 161 156 160 160 178 179 182 187 182 183 181 178 179 180 199 197 198 200 219 212 202 200 198 199 198 212 220 225 241 256 274 311 349 361 368 382 381 365 387 402 382 353 312 263 239 222 199 192 176 156 145 144 123 101 127 151 187 208 155 156 147 130 126 111 93 83 90 73 40 40 40 40 40 40 40 40 40 40 40 40 40 40 40 40 40 40 40 40 40 40 65 85 79 80 73 78 78 75 78 90 100 100 122 96 103 125 157 182 159 159 166 171 176 193 201 230 246 282 279 276 269 281 248 206 180 167 177 178 191 210 198 201 219 215 222 258 268 288 302 277 245 219 218 215 212 225 239 244 268 279 260 275 288 300 337 371 344 313 292 281 277 272 302 320 278 239 211 183 183 197 204 220 222 202 196 199 180 196 205 218 207 193 198 200 220 217 205 199 197 198 198 183 179 182 192 204 216 208 200 200 206 187 178 177 179 172 179 176 170 165 170 179 182 179 186 199 213 192 210 234 214 200 235 290 341 358 334 315 299 317 348 355 376 391 420 474 498 460 469 431 385 364 370 397 419 404 418 393 380 374 364 340 327 313 291 320 306 295 274 230 206 197 200 221 220 246 293 299 276 255 278 295 319 366 401 389 383 412 409 383 364 323 277 214 189 234 277 275 307 310 297 242 247 292 297 300 318 345 346
98 97 103 95 91 72 94 113 119 106 82 120 143 136 119 119 119 130 138 149 169 179 186 210 207 192 191 206 180 179 179 200 200 199 219 221 209 208 204 200 200 196 189 196 199 199 195 193 192 194 197 200 206 217 219 220 220 220 220 230 240 240 220 216 201 197 184 182 180 179 181 179 175 165 159 163 163 160 152 155 155 151 158 158 160 160 156 148 153 155 159 165 179 159 159 157 155 156 159 172 177 177 179 179 180 179 178 179 180 193 180 191 195 199 200 200 201 194 196 200 202 214 219 235 246 258 289 303 345 401 381 381 400 364 397 405 372 320 260 225 218 198 187 170 149 144 136 127 114 134 164 209 241 207 170 149 155 161 133 110 128 131 92 57 40 40 40 40 40 40 40 40 40 40 40 40 40 40 40 40 40 40 40 60 66 67 70 81 80 69 61 75 101 103 100 98 93 84 89 100 120 143 161 143 155 173 183 210 214 236 256 287 310 319 305 264 284 248 202 179 173 169 171 194 208 185 191 195 199 240 268 304 319 292 263 261 237 206 219 220 222 239 254 257 258 281 302 319 333 347 381 361 329 307 303 291 252 257 280 267 226 195 179 185 199 220 220 211 198 200 193 178 189 199 199 210 191 199 200 204 205 202 200 201 195 190 181 179 186 195 206 220 214 200 197 219 202 197 194 177 173 163 163 160 160 164 169 169 168 177 177 189 180 194 205 182 201 245 288 326 347 315 285 289 314 316 337 362 380 415 462 470 434 420 415 381 343 361 387 427 442 433 419 439 433 385 349 331 318 297 281 284 278 246 258 241 201 200 195 208 230 247 266 242 256 291 308 344 388 364 339 359 418 419 419 399 361 312 257 199 204 243 262 271 272 231 224 283 279 280 305 308 314 315
116 100 106 100 99 75 99 106 120 106 81 115 133 139 134 120 121 139 141 160 167 181 190 225 221 217 225 212 192 177 178 182 193 200 217 220 219 216 208 199 198 195 189 189 192 198 188 194 200 200 205 197 200 214 219 220 219 218 219 226 239 241 217 205 202 203 199 186 180 180 180 180 180 180 176 179 176 165 160 158 156 148 154 154 156 159 154 143 154 179 168 163 159 160 159 151 152 157 165 181 183 192 198 179 179 177 178 178 178 176 180 191 196 199 198 200 195 184 200 199 212 236 234 241 242 253 286 303 340 397 385 364 354 356 397 368 305 296 271 233 207 215 196 178 169 178 145 134 140 144 155 204 270 240 198 160 201 176 165 142 161 118 128 125 79 40 40 40 40 40 40 40 40 40 40 40 40 40 40 40 40 40 40 90 92 79 80 80 79 65 60 80 78 86 88 94 82 76 100 119 123 133 147 157 142 161 192 221 202 217 251 285 336 336 302 270 239 225 203 188 180 161 164 191 198 179 220 229 227 246 290 303 305 286 278 273 240 212 224 243 241 245 278 247 260 285 287 308 345 382 387 373 336 320 301 301 282 239 230 229 228 202 178 181 200 218 219 217 218 222 198 178 179 184 187 185 181 190 198 196 201 209 215 220 199 188 183 178 207 218 207 204 218 206 195 199 203 215 203 197 176 159 158 158 160 160 161 161 160 160 162 177 194 180 193 176 222 241 272 305 326 318 280 288 295 312 341 379 378 397 428 430 401 377 369 344 332 356 376 420 463 459 470 474 424 385 351 340 320 302 286 275 256 254 274 242 224 227 197 192 200 219 239 220 255 285 302 341 377 336 318 338 372 403 423 399 355 315 264 203 185 208 230 253 258 200 226 278 258 295 293 278 304 317
97 114 119 115 103 74 93 100 116 94 82 120 159 153 144 128 120 120 138 160 159 184 204 232 241 238 228 214 201 180 185 191 194 199 200 214 219 220 218 213 201 200 195 184 183 182 183 193 198 199 215 221 202 201 206 217 224 239 236 238 240 242 234 221 220 214 200 185 179 180 177 178 177 178 179 180 180 176 168 159 154 145 145 145 146 149 143 140 174 160 173 179 179 160 156 153 150 159 159 176 187 193 182 179 177 170 164 164 172 181 179 200 196 182 199 200 187 178 180 185 200 222 218 238 242 248 266 291 330 365 412 393 354 345 381 322 295 268 240 240 256 220 221 203 185 160 141 144 146 168 180 202 244 268 217 194 222 213 213 193 171 180 167 119 91 68 78 40 40 58 40 40 40 40 40 40 40 40 40 40 40 40 71 90 84 76 69 76 65 56 59 65 59 65 67 72 74 75 81 119 113 117 149 155 132 159 192 192 192 204 242 275 324 327 319 304 274 221 192 171 163 161 159 174 179 194 213 213 221 261 298 296 280 264 261 250 242 200 230 263 241 241 240 261 276 284 303 327 350 375 359 354 359 345 329 328 292 272 259 215 195 183 175 180 202 207 205 213 222 199 200 186 175 176 179 174 178 179 183 200 227 223 221 219 198 187 181 179 213 216 223 204 199 193 188 202 200 222 202 184 176 162 158 156 156 158 161 159 157 158 158 171 179 179 165 168 222 219 259 279 285 286 265 276 305 329 345 360 353 365 385 373 379 351 340 324 326 376 398 438 473 521 515 472 422 396 369 341 319 300 289 281 265 259 260 247 243 216 209 194 190 195 206 221 248 270 279 318 344 314 297 319 346 399 419 403 395 340 284 237 179 177 194 230 243 201 221 251 254 270 259 289 289 279
121 120 120 120 112 74 80 100 107 78 90 121 163 191 173 148 139 121 139 142 158 186 199 233 242 241 225 214 199 194 186 199 221 200 200 220 217 210 217 218 208 201 200 189 182 179 182 192 197 200 216 218 227 216 207 220 223 227 239 239 240 238 222 220 205 205 200 186 180 179 179 172 171 173 174 173 169 172 179 177 160 151 159 155 144 142 140 141 159 159 158 161 162 160 160 160 150 153 166 180 181 179 178 179 181 162 160 169 177 177 180 195 200 183 179 188 196 176 180 187 197 205 221 230 234 260 287 309 315 352 418 386 341 321 358 320 298 268 261 302 268 261 241 203 197 184 157 178 159 182 198 221 271 274 229 224 246 259 239 211 202 199 152 121 92 81 53 40 60 64 51 43 49 56 40 40 40 40 40 40 40 44 99 83 67 82 62 59 48 50 57 57 63 84 82 75 88 112 106 90 99 113 135 150 125 140 172 168 184 200 230 277 325 340 307 267 259 260 228 184 157 159 171 159 166 179 190 206 241 279 300 304 289 249 231 218 203 202 243 252 236 236 251 277 290 319 330 353 374 399 375 339 349 354 337 320 303 304 266 226 201 178 173 179 195 202 193 195 189 189 201 203 180 172 173 172 174 182 189 209 237 230 221 216 202 188 177 186 198 199 223 224 214 200 184 183 189 201 197 181 176 171 178 175 160 154 156 158 160 153 156 160 159 161 156 168 198 223 226 228 249 260 258 273 287 303 314 317 331 354 361 359 336 333 319 314 334 363 400 433 480 545 541 496 445 389 370 340 321 303 290 277 265 260 260 240 241 242 210 199 192 185 196 230 240 246 275 315 320 298 279 304 347 395 403 380 399 382 338 276 236 197 172 195 191 205 254 257 221 233 268 283 279 284
109 120 109 108 120 82 77 90 86 78 105 129 179 208 191 160 142 133 133 140 160 180 198 227 225 219 222 209 199 201 200 204 211 197 196 199 202 201 205 203 199 197 196 190 182 178 184 193 200 204 221 239 241 221 219 216 221 242 239 236 240 239 234 224 214 198 196 185 180 180 180 173 164 163 163 163 160 160 160 163 160 159 157 157 152 146 139 141 155 158 147 153 157 160 159 157 145 149 160 160 177 178 177 181 174 160 160 160 168 177 180 179 200 189 177 177 178 171 177 185 200 212 215 220 241 248 283 290 310 359 419 379 342 304 305 293 300 309 296 270 244 253 256 243 214 195 194 198 175 196 224 259 301 304 302 282 260 228 198 186 174 194 167 123 89 73 69 40 47 82 57 52 61 40 40 40 40 40 40 40 40 79 80 58 40 54 68 40 48 81 80 80 78 97 100 99 124 112 99 117 96 104 132 137 118 137 152 166 193 229 258 285 331 320 309 261 224 236 243 193 156 169 174 157 188 191 197 229 251 295 297 290 298 262 211 194 215 250 258 233 237 246 246 256 287 305 320 359 356 384 386 363 337 317 319 302 300 300 258 220 192 179 175 174 178 199 197 179 180 179 201 188 178 176 168 169 173 202 207 219 222 216 209 198 191 187 172 179 189 198 212 236 224 197 179 179 185 203 205 197 182 180 181 182 180 161 160 156 156 149 151 157 157 154 151 166 176 208 200 232 258 246 248 260 280 299 309 322 358 387 367 338 320 309 300 301 348 384 384 418 470 539 559 491 463 439 387 340 327 304 290 277 263 251 249 262 242 230 235 221 199 179 195 198 221 268 284 282 276 269 281 304 354 374 368 359 350 380 358 306 250 201 170 172 197 244 259 247 211 220 239 256 259 271
90 100 102 98 118 116 78 79 77 106 120 154 170 201 192 170 151 139 139 149 163 175 186 208 195 199 221 209 197 198 202 219 213 196 181 186 189 200 200 200 200 200 199 190 180 180 185 193 197 206 218 219 230 238 237 233 218 222 240 228 229 227 235 241 214 200 192 185 179 179 178 171 164 162 159 160 159 157 156 156 158 160 160 160 159 156 147 138 141 143 139 146 173 161 158 147 141 160 155 157 167 166 166 172 161 158 156 178 178 180 180 177 194 193 175 177 176 167 177 184 195 196 203 212 220 240 257 274 320 368 404 362 299 281 279 263 277 321 288 279 259 225 231 249 242 217 222 219 187 216 235 279 335 343 323 307 261 241 210 172 156 165 140 119 98 81 71 59 74 78 59 60 73 74 52 40 40 40 40 40 40 78 46 40 40 65 66 40 40 70 75 79 78 81 79 88 132 121 119 119 103 111 107 116 118 133 155 163 185 217 255 289 312 283 285 267 219 195 214 181 158 155 164 204 215 227 226 248 267 311 311 267 268 260 207 199 240 242 239 228 241 252 258 269 285 303 319 318 333 363 341 334 347 325 295 279 295 287 244 227 199 205 211 177 171 180 187 179 177 179 176 179 180 166 167 174 188 187 203 221 218 207 200 191 181 180 171 182 187 195 205 224 211 200 183 180 178 187 215 216 185 181 183 182 180 172 178 159 151 145 142 148 148 148 155 175 178 180 192 225 214 221 259 286 314 343 351 352 384 397 361 326 301 286 287 310 355 346 379 414 461 526 556 525 474 435 393 364 339 297 281 269 260 247 241 259 259 227 224 214 198 178 199 200 219 240 259 279 255 280 301 318 343 329 348 337 320 351 343 302 278 235 178 167 216 234 230 219 220 260 264 249 280 297
69 84 88 107 107 114 105 81 97 123 125 142 168 187 177 168 160 139 137 149 160 166 176 179 178 199 204 199 194 200 198 195 194 186 179 180 185 184 186 199 198 198 200 187 179 179 185 193 199 200 211 220 219 222 220 239 241 240 230 224 219 220 237 240 228 197 197 200 186 181 178 177 171 176 167 159 160 159 157 156 153 157 160 160 159 159 159 139 138 139 136 143 160 160 181 159 139 140 141 154 160 160 158 158 151 163 158 183 180 178 176 174 184 183 175 160 159 166 178 180 180 183 195 199 215 239 241 267 310 349 366 359 309 261 265 260 282 295 289 246 234 214 205 214 230 254 240 242 214 240 280 300 307 297 301 290 271 253 238 200 167 137 127 109 92 79 75 95 87 71 69 80 80 80 47 40 40 40 40 40 41 47 40 59 56 51 46 40 40 59 58 88 92 78 80 108 118 100 99 99 116 158 129 116 139 147 165 196 201 219 249 273 264 268 239 252 219 177 175 162 152 175 199 236 227 200 229 274 277 305 305 267 229 253 215 197 218 204 213 227 240 247 278 292 326 326 316 352 363 360 344 313 305 302 293 262 270 264 256 244 200 203 217 188 175 168 176 186 182 180 173 180 176 167 167 185 215 210 216 209 202 199 197 186 181 177 170 179 184 188 194 194 183 189 184 179 176 180 203 195 184 175 183 182 166 178 167 158 159 160 146 141 142 153 160 159 177 177 191 200 211 256 301 320 352 353 385 406 423 393 363 337 307 275 292 304 319 333 355 390 439 508 542 518 471 437 403 384 344 308 272 260 252 240 235 259 262 260 249 238 207 188 180 199 206 211 230 241 261 319 321 301 329 312 297 308 286 295 323 342 312 248 183 159 187 210 180 195 214 232 249 259 266 286
79 77 76 78 89 97 120 120 103 94 104 140 166 161 143 140 147 139 135 140 159 160 169 165 174 179 186 196 188 193 190 181 179 180 180 177 180 180 179 182 183 189 192 184 178 180 185 191 197 198 200 219 220 218 219 228 241 232 219 221 219 220 230 234 225 209 200 200 199 188 179 175 176 185 185 176 167 159 182 175 160 153 154 154 157 160 160 161 146 140 137 139 149 159 162 158 154 139 138 144 159 140 141 148 152 168 180 178 187 180 179 173 180 177 173 157 159 162 169 173 172 178 193 207 221 224 231 246 286 287 311 341 290 257 239 243 286 270 240 230 206 199 191 199 240 279 293 275 241 259 248 286 282 273 291 239 232 213 237 216 168 139 122 100 94 84 99 88 79 60 66 71 80 75 40 40 40 40 40 40 40 40 40 40 40 40 40 40 73 80 61 98 100 89 85 119 113 100 96 99 117 148 155 128 138 157 175 202 214 237 271 282 250 237 236 198 199 181 164 152 178 202 199 205 204 197 227 258 263 299 288 257 219 203 208 188 202 211 240 253 241 252 302 299 300 302 294 338 356 336 360 347 292 262 260 247 262 251 231 229 202 198 189 179 177 180 179 192 190 184 164 168 162 164 168 183 220 227 221 200 195 189 184 179 180 173 168 174 186 181 180 181 178 181 180 177 172 184 177 176 179 160 174 160 160 181 158 159 160 157 146 139 140 153 159 157 157 175 180 180 216 259 309 344 353 358 368 371 405 387 337 301 284 266 300 294 302 354 381 400 438 478 511 513 487 435 387 344 308 288 268 260 242 233 231 240 256 278 262 233 200 196 177 174 197 216 248 243 292 299 291 302 314 305 270 299 295 257 299 333 306 265 209 157 168 176 173 174 199 206 206 240 240 257
96 94 82 107 79 92 109 117 95 100 95 125 137 113 114 120 134 140 131 153 153 150 159 161 180 180 180 198 182 184 183 180 179 180 181 179 181 179 178 178 180 181 179 181 175 180 181 187 191 194 199 200 215 216 218 219 240 230 218 221 216 218 219 223 222 218 201 200 201 187 180 176 175 187 193 182 184 175 181 173 168 162 153 150 152 159 159 160 158 160 139 133 145 155 161 159 156 140 137 158 150 139 148 159 164 167 178 184 196 174 178 169 162 172 179 155 160 159 161 165 175 179 180 204 214 210 216 223 248 280 287 306 321 277 221 247 282 239 212 202 200 183 180 192 233 270 276 276 227 219 224 244 255 252 258 226 199 180 176 167 153 123 114 93 74 80 99 79 74 59 46 40 40 40 40 40 40 40 40 40 40 40 40 40 40 40 41 44 78 83 70 74 77 98 98 113 107 97 98 119 139 140 167 159 142 152 172 198 222 244 297 279 279 267 227 211 191 176 164 148 164 172 185 194 180 190 216 220 250 284 296 257 223 196 179 213 247 241 242 254 260 254 299 298 290 274 283 319 309 339 339 324 293 274 252 233 237 242 239 211 199 198 178 199 221 207 161 161 160 169 157 158 173 174 185 202 218 224 220 205 199 183 178 176 173 167 166 172 202 189 179 179 178 173 171 169 174 203 188 168 159 156 155 152 157 155 153 158 157 149 140 137 140 157 160 158 156 161 164 179 213 250 278 298 306 318 318 331 366 362 338 299 260 260 274 281 296 318 360 387 406 435 450 483 470 431 400 369 335 300 270 256 235 221 234 256 241 240 261 246 214 200 194 176 181 239 285 264 280 287 278 279 287 284 259 302 299 249 260 287 292 265 220 177 157 159 159 183 200 201 207 241 227 214
124 120 98 133 125 95 92 100 91 100 100 115 111 108 104 116 142 143 126 131 142 160 157 167 180 180 179 193 186 178 182 180 176 179 180 173 180 180 179 178 180 177 167 168 170 180 181 184 186 192 199 197 199 213 232 220 223 219 214 213 213 219 220 221 218 202 198 196 193 189 180 180 177 178 181 196 202 186 178 178 183 178 160 151 147 150 154 159 160 150 138 131 141 141 145 160 158 145 137 142 139 138 144 160 178 180 180 181 180 180 162 163 172 157 171 157 155 155 158 166 180 179 182 197 198 195 203 214 246 262 245 253 272 264 213 228 246 209 186 185 178 175 192 219 227 240 228 246 221 198 202 239 220 212 228 233 175 161 136 137 123 107 96 80 62 62 79 72 47 40 62 40 40 40 40 40 40 40 40 40 40 40 40 60 40 54 62 80 86 102 79 80 81 97 100 101 98 92 93 105 129 156 179 158 141 158 182 192 210 243 293 302 273 244 238 247 212 175 144 152 162 165 185 185 176 182 192 211 251 262 255 222 175 195 215 232 259 261 241 241 266 287 283 276 269 264 303 299 297 321 297 287 292 262 269 269 239 217 215 207 196 190 190 232 259 209 188 185 165 158 156 160 179 190 221 226 218 215 210 203 202 190 181 177 168 163 168 188 200 193 182 177 174 166 160 161 175 202 195 169 159 154 154 155 156 153 145 142 145 142 136 138 152 159 150 154 159 158 159 181 219 224 245 279 274 291 279 308 326 320 305 292 275 248 262 270 283 321 336 342 367 404 407 446 463 437 400 362 325 285 261 260 229 212 229 244 220 240 261 258 235 203 179 171 191 248 297 301 300 283 281 260 280 260 278 285 272 244 228 240 269 241 205 175 157 154 154 175 183 177 218 234 216 217
136 115 124 139 139 130 102 88 91 99 101 99 103 117 119 108 137 142 123 136 159 174 160 182 179 182 178 188 190 178 186 179 171 179 166 180 179 175 165 165 173 161 162 162 165 175 180 181 184 192 200 200 214 220 236 216 220 216 202 209 229 240 230 225 215 223 219 200 201 203 186 198 195 181 184 198 200 200 200 201 192 181 163 162 157 149 146 155 158 140 140 130 136 136 141 161 158 159 140 135 138 155 159 159 180 180 180 177 177 179 167 159 158 165 153 153 149 162 162 162 175 179 180 179 179 183 193 192 202 221 209 213 220 221 192 207 202 192 173 167 168 185 221 243 210 196 199 200 221 195 180 198 183 178 196 203 173 139 128 113 104 98 88 77 69 40 48 40 79 40 40 40 40 40 40 40 40 40 40 40 40 40 40 55 60 60 52 61 65 71 60 78 79 78 88 87 86 84 88 96 107 124 133 128 132 160 160 196 210 236 263 288 282 259 218 233 221 194 156 142 157 161 180 189 199 202 199 208 230 236 206 199 182 222 211 215 253 268 259 257 254 259 259 261 246 285 298 272 307 325 314 258 262 255 259 252 260 234 205 197 201 210 238 238 241 230 236 215 183 151 149 167 182 194 236 245 212 202 199 195 197 188 180 175 166 161 165 195 197 180 191 178 189 167 160 159 167 177 176 163 155 154 157 159 161 157 148 140 139 137 136 138 147 149 147 155 158 175 166 176 185 202 220 251 257 259 252 287 289 278 282 248 250 238 259 272 294 301 302 313 353 360 371 419 447 461 418 368 318 283 261 241 225 206 219 221 220 240 253 262 227 200 179 168 190 251 281 301 290 288 279 250 242 245 262 259 252 231 226 209 212 203 176 189 189 167 152 161 161 183 200 202 181 215
155 119 140 177 157 153 131 125 111 104 118 127 117 142 130 105 134 132 114 127 165 179 165 178 180 180 179 181 193 183 161 160 160 160 162 163 162 166 181 181 160 168 181 178 176 162 170 181 181 185 191 194 195 200 208 213 215 201 216 231 236 238 229 223 219 237 239 211 204 201 200 208 196 186 198 197 187 184 180 201 187 179 177 170 159 155 143 141 137 137 138 143 136 127 127 143 154 141 141 134 139 160 159 160 161 179 165 164 171 179 180 173 159 152 152 145 155 159 167 178 179 178 176 174 181 179 183 180 179 186 183 194 193 195 184 170 172 172 164 155 161 187 221 226 203 174 180 177 200 200 185 156 153 161 140 155 146 120 119 102 99 91 79 76 73 46 57 40 40 40 40 40 40 40 40 40 40 40 40 40 40 53 42 40 43 40 40 44 43 60 60 71 75 78 80 79 79 82 89 95 113 117 117 123 139 144 160 182 211 232 264 278 257 236 199 213 194 184 152 140 154 183 203 198 186 179 201 245 254 216 187 174 191 198 185 218 253 238 239 268 249 258 261 239 236 264 255 273 319 320 292 246 251 259 242 228 229 212 206 226 253 238 228 222 228 254 245 208 184 156 148 176 182 187 228 241 209 200 194 180 179 181 178 170 162 160 162 174 179 178 194 179 187 170 161 158 159 177 185 162 152 151 159 159 159 157 153 149 145 139 134 138 140 139 154 158 160 159 162 163 178 179 192 219 238 221 233 242 251 239 248 215 218 261 258 294 298 264 281 315 321 323 352 371 416 459 444 383 339 310 261 237 214 203 200 221 218 226 237 231 211 210 195 171 181 258 282 279 276 302 299 273 241 231 251 248 251 214 217 217 214 190 198 202 203 173 157 151 156 167 176 181 168 197
143 139 153 179 183 170 150 140 127 101 121 138 140 142 120 115 107 114 110 118 140 161 159 179 180 181 174 184 189 183 163 159 161 182 160 179 169 177 179 182 184 188 199 188 201 176 172 176 184 186 186 190 198 200 200 200 198 199 227 240 232 226 223 222 222 240 243 239 229 215 200 196 195 199 199 192 180 179 175 180 175 174 162 160 160 159 155 141 140 142 139 128 142 132 131 138 156 140 138 133 154 159 159 159 160 159 159 160 161 170 179 169 159 179 147 144 155 160 165 173 173 170 168 164 164 175 179 169 165 176 169 164 164 179 179 164 160 157 153 146 153 161 171 181 168 160 159 169 194 224 181 150 138 152 157 126 120 104 101 98 83 81 79 73 74 82 73 62 40 40 40 40 50 40 40 40 40 40 40 40 40 40 40 40 47 40 40 40 40 54 60 59 64 74 79 78 79 89 97 102 120 111 120 131 141 137 144 164 185 217 252 267 241 239 217 184 170 159 142 141 153 164 180 175 170 179 200 232 231 219 217 181 161 171 200 214 219 230 240 275 245 225 236 219 229 238 264 288 288 283 262 228 242 244 220 219 218 225 256 279 273 242 218 216 224 248 219 202 177 161 148 159 165 175 195 224 225 225 208 187 175 176 174 163 157 160 168 180 189 177 175 169 170 160 160 157 161 173 166 155 151 158 160 160 159 159 159 158 157 149 141 134 135 136 155 159 159 157 159 160 159 168 178 193 206 213 209 216 210 219 218 195 230 251 241 270 270 243 279 280 286 303 324 340 380 434 447 424 384 330 275 249 217 196 191 199 225 221 218 241 238 240 200 169 175 223 278 270 299 302 314 313 277 222 211 216 226 206 216 222 216 201 204 203 180 170 161 157 151 158 162 159 166 190
140 160 167 202 196 181 163 145 128 121 122 139 160 139 122 129 144 141 118 113 140 146 156 173 179 178 174 169 172 176 162 155 182 188 179 196 183 179 177 179 185 196 201 200 197 182 175 181 192 201 201 197 193 193 195 198 197 218 218 228 219 220 220 223 229 237 239 240 226 218 206 199 199 200 196 185 180 179 176 170 164 160 159 159 154 152 148 145 150 141 140 125 130 125 141 155 138 133 131 133 143 163 168 160 159 159 160 164 172 158 161 160 158 160 140 142 151 157 161 164 164 162 160 161 162 164 164 159 157 159 158 152 158 164 163 156 154 148 142 140 143 145 149 152 156 156 160 181 204 183 161 143 133 141 145 126 107 99 93 90 80 79 77 69 48 40 40 40 40 40 40 40 40 40 40 40 40 40 40 40 40 40 40 40 40 40 41 40 40 40 47 57 60 67 70 75 79 97 99 98 100 112 120 120 120 129 138 153 180 212 232 244 242 240 226 185 165 152 139 138 142 148 158 161 162 184 176 193 193 190 176 157 187 188 206 240 235 235 252 283 245 241 215 227 243 282 291 289 236 239 230 218 220 217 216 223 235 252 287 301 258 219 238 212 228 234 215 187 164 160 147 154 159 179 223 237 242 237 216 187 170 166 168 155 158 167 186 204 193 178 176 167 159 159 156 155 159 160 159 160 152 155 155 155 155 157 159 160 159 152 138 132 136 139 144 151 154 155 157 160 159 158 166 169 179 202 197 224 205 185 182 191 220 212 242 225 230 258 285 268 262 284 286 321 355 413 426 415 381 332 315 280 238 190 190 194 202 220 220 240 218 221 220 204 160 200 261 257 285 280 312 320 275 263 251 231 203 200 191 203 187 200 201 199 184 173 162 161 150 147 159 154 160 180
166 178 200 200 184 179 175 157 153 145 136 153 143 125 123 136 140 137 122 111 127 138 155 190 201 179 183 160 152 151 149 159 181 199 194 201 197 188 183 188 189 194 198 200 200 190 182 177 184 198 204 217 200 200 199 198 205 221 216 229 215 218 218 225 229 238 238 248 260 231 216 205 200 198 191 188 182 179 177 178 180 168 159 158 159 158 160 157 160 154 137 122 128 144 158 146 132 133 141 140 160 159 159 158 160 159 159 159 163 159 156 152 148 155 142 139 144 152 157 161 160 159 157 161 160 159 160 158 155 153 150 145 152 153 148 147 141 143 141 139 140 137 138 136 149 152 160 181 185 171 158 137 120 119 123 107 100 99 98 87 79 74 66 62 50 40 40 40 40 40 40 40 40 40 40 40 40 40 40 40 40 40 40 40 40 40 52 43 54 58 64 59 67 83 79 81 82 94 96 98 101 110 121 117 120 127 140 142 161 196 202 190 239 218 228 191 163 160 160 153 143 137 139 149 147 159 167 202 170 150 157 182 215 219 220 236 260 280 271 238 239 219 221 209 244 278 238 248 219 236 211 221 206 211 222 248 250 283 280 267 232 251 264 224 195 219 182 180 156 150 144 158 167 194 225 236 241 236 215 185 168 159 164 156 168 177 194 200 193 196 194 184 165 155 153 155 157 159 160 159 153 147 146 142 142 150 160 157 149 139 137 132 142 158 146 143 152 153 153 159 159 155 158 159 166 176 202 206 174 182 209 217 209 195 215 204 236 274 279 252 251 258 266 303 345 379 362 370 353 335 320 280 245 206 184 211 207 199 221 219 218 199 210 197 170 169 203 240 280 276 283 295 282 295 294 263 241 225 209 180 177 186 178 191 192 186 176 157 153 145 139 146 157 162
197 201 213 219 198 193 181 182 180 154 140 128 128 134 140 141 140 139 127 112 122 153 180 159 180 180 161 140 139 142 156 158 186 200 199 214 206 200 200 198 197 198 197 199 199 190 183 178 178 182 199 202 199 199 200 200 208 209 205 213 223 239 240 237 240 238 241 256 265 239 233 222 220 203 196 200 192 179 198 184 169 167 164 157 160 159 160 160 159 147 143 123 126 140 160 139 129 130 136 161 160 160 159 155 160 155 159 159 159 159 160 156 139 153 155 138 140 142 152 160 160 155 154 160 160 160 160 159 156 154 156 153 139 140 138 139 139 140 139 137 140 136 131 130 131 146 160 158 158 161 140 127 116 120 103 98 95 100 97 99 81 76 61 60 58 56 54 40 40 40 40 40 40 40 40 40 40 40 40 40 40 40 40 40 40 49 61 61 66 80 79 74 76 80 82 81 82 86 90 97 104 98 105 105 111 128 134 129 141 161 160 187 202 208 243 195 176 161 160 160 159 140 133 130 139 152 185 181 143 154 198 221 236 254 276 279 247 249 237 222 202 222 199 222 250 278 229 217 218 200 195 196 206 220 251 259 271 268 249 239 253 281 254 217 185 179 192 155 146 142 142 156 180 230 234 229 240 233 210 179 169 157 150 160 167 183 202 187 192 193 180 177 159 149 159 158 158 159 160 158 156 156 147 140 139 139 142 149 145 141 132 136 143 151 138 158 159 148 143 150 153 151 154 159 159 165 178 195 165 205 215 239 202 178 190 211 242 297 307 263 232 236 259 288 309 333 313 318 300 323 301 268 226 218 187 183 197 201 217 222 215 196 202 163 163 203 250 268 275 280 259 270 255 274 279 248 240 238 198 210 216 184 160 165 170 181 180 168 158 147 141 139 147 159
199 201 198 198 200 198 183 181 161 155 133 127 134 140 140 139 137 134 128 113 123 164 182 170 143 151 165 146 152 182 181 158 168 182 193 200 204 197 200 200 199 200 199 200 197 189 182 184 182 179 183 194 200 197 200 200 198 199 204 220 218 241 239 240 241 251 258 265 284 277 245 242 229 201 199 209 198 196 201 179 180 178 164 159 159 160 159 158 160 146 139 143 126 120 147 136 128 140 160 153 159 160 157 161 146 149 159 158 159 160 160 155 145 139 145 138 140 138 144 151 152 153 161 160 160 160 160 159 159 160 165 168 137 135 135 140 137 136 135 133 134 131 127 124 133 144 148 138 140 159 138 124 113 110 100 97 91 84 79 84 79 76 71 62 40 40 40 40 40 40 40 40 40 40 40 40 40 40 40 40 40 40 40 40 40 44 60 61 61 75 78 79 79 81 85 86 84 89 93 96 114 102 99 118 119 115 118 120 131 137 141 159 168 204 199 183 173 161 159 161 150 137 131 129 130 149 166 153 139 159 212 251 261 251 261 277 247 220 222 200 182 188 200 225 259 228 250 213 190 180 198 212 216 230 266 285 313 294 258 272 289 280 241 235 210 177 160 155 143 141 139 144 166 228 231 220 237 227 199 183 173 147 160 159 164 179 168 177 190 194 177 163 157 150 159 158 158 159 159 158 159 159 151 141 137 137 138 142 144 141 131 131 139 140 138 147 160 150 138 158 158 160 155 152 150 149 157 176 165 167 192 209 199 176 187 217 268 306 278 258 239 215 236 250 279 298 262 273 270 309 299 260 216 217 198 173 179 191 204 207 219 216 176 158 209 259 279 281 279 283 256 240 245 269 270 251 242 239 222 230 228 197 196 172 157 159 169 171 158 147 141 140 138 148
194 181 190 187 194 197 183 179 165 159 130 129 130 137 140 140 145 159 137 115 117 128 142 158 132 140 133 144 137 161 179 181 179 177 184 196 187 180 191 199 200 200 200 200 195 198 200 194 188 182 183 187 191 194 200 199 200 200 202 209 216 220 231 236 241 279 277 280 290 299 292 260 239 237 224 216 219 199 197 201 187 181 180 181 162 160 155 150 157 145 140 137 135 119 130 126 142 151 140 141 159 160 155 159 144 148 157 158 160 156 155 155 152 137 136 136 139 140 139 160 160 159 159 159 160 159 160 162 166 179 187 202 171 139 129 129 131 130 130 128 127 125 123 120 129 141 133 136 139 140 140 135 115 102 100 100 100 88 102 78 74 71 61 56 55 40 40 40 40 40 40 40 40 40 40 40 40 40 40 40 40 40 40 40 40 40 49 55 55 80 77 79 80 82 90 98 96 93 97 108 117 107 107 123 120 120 118 138 159 151 154 157 158 171 179 179 175 161 159 151 146 144 140 134 128 134 147 139 136 154 201 240 218 225 265 283 240 220 205 222 181 193 224 243 258 230 200 199 177 191 220 241 221 256 285 336 329 288 288 315 306 261 233 214 200 203 172 173 175 156 141 138 153 204 220 199 233 224 200 185 172 157 143 141 146 180 158 166 180 179 167 160 153 140 150 155 157 159 159 158 159 160 153 140 141 153 140 142 146 141 134 125 129 140 140 141 146 144 137 140 150 155 147 142 143 142 144 147 152 156 186 174 198 173 194 221 274 325 281 236 227 199 216 226 239 254 245 245 240 253 259 258 223 181 180 165 175 172 185 178 217 211 169 139 172 227 265 268 258 258 240 240 236 241 236 240 240 240 239 239 220 212 214 197 172 159 153 157 158 143 139 138 136 147
200 179 180 180 181 180 179 180 181 148 138 134 133 139 140 140 152 154 140 128 115 115 126 145 128 149 161 137 135 150 173 180 178 180 179 180 179 179 179 179 193 197 199 206 199 198 200 198 192 197 202 190 193 195 193 199 209 199 204 221 220 218 222 233 242 267 269 274 281 283 303 287 265 265 259 236 215 205 214 205 177 159 161 159 160 155 148 140 139 140 140 136 126 118 120 125 136 138 139 139 148 148 147 160 137 143 160 160 160 160 157 143 139 140 135 134 155 153 150 162 157 156 157 159 159 159 163 183 192 220 199 189 158 142 134 120 122 132 136 130 124 121 120 119 116 121 118 121 120 137 140 142 111 100 98 100 97 98 95 82 78 78 79 80 55 40 40 40 40 40 40 40 40 40 40 40 40 40 40 40 40 40 40 40 43 74 51 51 75 83 79 81 83 91 93 107 100 94 105 122 142 112 122 140 133 126 127 138 163 176 178 194 179 177 192 196 196 199 195 181 167 149 145 140 139 127 141 137 133 141 168 192 184 212 236 249 222 202 179 198 173 212 226 259 227 208 200 188 179 217 219 238 249 285 322 300 280 296 332 342 301 254 246 239 223 197 175 162 158 160 143 136 169 223 198 185 220 221 195 178 169 163 161 152 141 158 161 159 181 174 156 157 147 139 146 153 157 160 158 159 162 153 147 140 150 165 147 136 154 160 146 120 126 137 139 139 136 139 134 139 139 141 142 137 138 139 140 142 145 154 160 159 166 172 199 225 274 322 285 227 222 189 197 208 221 239 227 222 218 220 209 201 219 203 172 160 160 159 164 169 210 198 175 155 169 243 300 287 281 259 236 241 220 234 219 239 239 222 227 232 231 240 242 216 207 170 156 149 140 140 136 134 139 147
199 193 165 174 184 179 168 178 167 139 141 137 137 140 140 142 159 178 167 135 118 120 118 139 133 129 161 164 146 147 161 158 161 178 180 180 177 179 177 175 178 186 200 213 200 201 200 200 198 194 199 202 204 202 196 213 223 218 203 217 220 219 220 224 236 240 247 259 258 280 311 299 256 239 250 253 235 219 196 188 181 180 173 159 152 140 138 140 135 140 139 141 140 140 116 120 139 139 140 140 140 140 157 146 137 154 160 158 159 155 160 149 141 137 133 135 148 155 156 159 161 149 151 155 157 160 165 178 174 195 184 156 146 139 131 121 121 133 140 137 134 140 128 118 125 113 121 114 117 137 141 111 102 96 91 93 92 87 79 80 80 80 80 68 68 48 40 40 40 40 40 40 40 40 40 40 40 40 40 40 40 40 40 40 40 71 71 66 100 83 80 90 97 108 97 119 110 96 102 117 139 125 118 128 136 136 140 143 152 175 205 225 200 192 215 219 219 227 219 205 189 157 157 159 143 128 132 130 142 139 151 156 182 194 215 210 203 217 201 167 200 217 214 221 216 195 181 166 185 213 232 247 276 310 285 282 257 292 321 308 297 307 288 283 246 212 183 160 175 159 138 144 166 209 185 174 191 204 180 169 160 158 155 147 137 153 160 159 153 149 144 140 141 138 152 154 153 155 160 159 159 142 147 158 157 151 140 132 141 144 140 119 122 128 134 135 132 132 131 141 140 139 135 149 148 140 140 142 146 150 152 154 153 168 187 227 280 278 253 217 190 175 182 195 202 225 221 203 203 200 192 181 173 185 178 154 156 155 154 165 203 200 175 152 159 230 304 308 267 259 245 231 217 219 219 229 242 219 220 218 233 261 241 215 198 192 164 155 144 135 134 133 139 142
200 182 158 161 190 195 179 159 154 157 159 139 140 140 139 148 160 182 151 137 119 119 129 120 118 135 160 176 172 166 156 161 160 180 173 180 176 170 170 170 176 185 200 201 206 207 208 219 221 210 199 208 214 209 198 231 239 238 218 219 230 230 227 228 230 241 260 263 260 282 305 299 255 240 234 243 226 220 193 176 172 168 164 160 149 159 159 161 149 137 135 131 130 119 127 116 142 138 140 139 140 138 141 134 150 159 160 154 154 159 145 143 141 139 130 138 141 141 149 154 153 140 148 160 159 160 159 157 150 160 160 141 138 134 128 121 122 133 139 138 137 140 138 139 160 150 121 101 121 120 118 112 98 95 86 86 84 80 79 78 80 79 68 40 41 40 45 40 40 40 40 40 40 40 40 40 40 40 40 40 40 43 60 61 53 53 62 68 99 87 86 99 112 133 106 131 115 99 114 119 133 139 139 131 140 139 145 159 163 170 201 248 245 221 201 195 195 195 193 178 177 159 159 158 161 147 149 128 133 143 162 176 180 177 178 181 178 185 179 159 204 183 174 171 177 181 160 173 206 219 242 272 292 287 268 256 248 271 283 285 294 309 298 277 258 231 209 177 156 152 133 139 159 215 208 159 172 183 174 177 159 154 148 142 136 160 160 159 144 140 136 138 138 137 161 156 150 155 159 162 137 139 152 156 150 144 140 140 129 138 131 121 120 118 123 126 126 126 132 140 134 132 138 159 143 138 139 142 147 149 148 144 147 154 179 222 278 260 217 199 170 173 186 181 193 216 207 199 191 183 178 165 157 154 161 149 142 151 160 184 229 200 162 137 182 245 319 298 250 241 264 254 237 219 208 200 202 206 221 210 236 259 241 204 219 210 172 163 153 140 131 131 135 137
161 146 152 178 184 189 173 160 166 179 158 140 139 141 150 164 180 163 161 139 126 119 142 128 118 139 154 159 165 181 157 167 157 160 144 153 162 162 170 181 184 200 218 216 216 216 215 219 221 216 200 231 237 218 202 206 215 236 243 236 239 238 237 237 239 239 254 280 282 281 295 312 282 262 231 219 217 222 199 181 180 176 160 158 159 175 178 159 140 159 140 143 143 138 132 117 122 139 140 138 141 135 136 140 141 150 160 142 151 160 152 139 140 139 131 136 139 140 141 141 139 142 149 160 166 174 159 150 139 141 143 138 135 125 120 117 123 130 140 139 138 143 159 158 161 163 132 100 100 100 119 120 111 100 82 81 82 81 79 76 79 77 61 45 59 49 40 40 40 52 40 40 40 40 40 40 40 40 53 40 41 57 61 77 77 58 60 70 97 98 98 107 134 146 127 157 127 103 106 116 118 131 139 140 137 140 146 160 175 188 207 251 257 221 216 207 179 180 177 169 158 155 149 142 151 158 161 145 128 133 142 164 174 159 161 162 160 174 161 159 180 176 159 160 165 181 160 164 193 207 245 284 251 225 225 238 261 289 297 294 299 269 254 241 215 227 208 157 126 128 137 135 176 198 188 162 153 162 159 178 159 157 146 136 141 174 165 151 138 140 130 131 135 150 160 143 157 159 159 159 139 145 167 159 160 157 140 137 125 127 129 121 120 123 116 122 122 123 140 140 127 140 138 147 137 138 161 155 154 152 143 142 143 148 168 206 250 267 233 204 169 157 174 165 179 187 187 202 193 180 167 161 157 146 138 139 140 146 155 180 207 178 139 149 218 277 322 290 252 219 260 244 228 246 249 225 211 201 178 186 196 208 192 185 201 218 199 175 159 148 137 130 130 130
129 132 172 182 190 197 182 187 192 179 164 152 139 145 171 183 174 159 144 137 140 133 137 139 132 128 150 136 157 161 155 149 141 141 153 177 171 169 179 180 203 200 211 220 220 219 219 223 219 220 199 229 239 224 211 229 241 238 246 260 241 249 254 242 239 238 238 248 240 247 283 262 292 301 249 232 214 240 205 181 176 171 162 173 177 181 169 155 168 159 161 148 138 134 120 114 143 138 140 135 135 131 140 140 139 139 139 148 159 158 156 143 137 139 133 131 141 139 139 138 135 141 145 155 161 181 175 158 142 136 140 131 120 120 119 115 120 119 128 138 140 148 160 152 164 157 141 116 97 100 111 101 99 96 87 80 79 84 76 71 69 73 60 62 55 52 40 40 40 45 40 40 40 40 40 40 40 40 40 40 60 77 75 79 80 80 70 66 82 93 94 109 139 162 158 149 139 112 119 138 119 123 140 140 139 140 146 158 171 199 224 273 247 212 211 206 188 169 173 160 159 156 150 141 137 140 150 153 140 120 137 144 148 161 158 159 163 161 159 159 164 157 152 150 166 170 159 179 191 211 253 277 217 211 243 270 283 319 331 320 294 259 237 223 210 206 199 144 120 123 126 144 185 178 160 161 145 151 154 159 160 160 152 134 130 128 163 160 138 132 131 137 140 149 149 142 157 160 160 157 135 164 180 164 152 140 134 141 124 119 122 110 117 133 120 120 120 142 137 124 126 140 140 139 136 158 157 160 160 157 144 140 140 142 155 193 236 263 211 186 158 154 154 156 157 182 177 201 178 182 182 161 147 141 138 138 137 139 149 163 171 142 140 177 232 300 307 274 232 203 249 242 243 264 262 232 223 232 207 183 162 165 171 165 208 219 214 180 162 162 146 129 128 127
117 140 159 179 181 201 194 187 185 177 160 152 143 156 183 179 158 158 141 144 144 141 126 148 171 154 125 139 139 145 142 141 157 164 159 178 175 180 183 188 180 190 204 209 221 220 229 241 226 232 215 217 237 227 218 227 237 245 258 270 261 271 283 257 238 236 238 243 233 226 242 246 257 296 276 232 219 218 219 198 180 177 179 179 201 188 171 163 176 159 143 138 135 140 122 116 133 133 132 129 126 130 135 138 139 140 140 147 148 150 144 139 138 133 130 125 138 138 133 131 133 139 143 158 167 173 158 160 144 137 130 125 120 118 118 121 111 115 121 135 140 141 143 140 159 147 121 105 100 95 94 93 99 92 80 80 81 90 80 80 71 60 50 46 59 40 40 40 40 40 40 40 40 40 40 40 40 53 51 60 61 60 70 75 76 80 97 80 73 81 83 97 112 142 147 144 129 117 138 140 141 139 141 140 140 139 149 161 166 195 220 249 232 213 197 182 175 168 165 158 156 159 160 150 140 137 133 140 139 119 131 140 142 179 159 159 174 164 154 157 187 176 157 139 161 157 155 190 208 216 242 248 207 208 263 304 312 314 283 289 284 259 270 229 219 191 181 164 120 124 139 155 166 168 156 152 141 144 157 160 159 155 149 144 144 130 158 154 126 137 138 140 140 137 139 150 161 159 153 141 135 166 156 147 141 144 159 165 137 126 121 110 129 155 132 118 134 133 124 120 133 138 140 138 133 140 157 159 159 152 143 139 140 140 153 180 213 240 213 178 154 150 146 141 152 159 181 180 168 175 162 172 155 141 136 132 132 132 141 154 144 130 159 211 266 297 256 220 205 194 240 254 244 255 260 239 235 249 225 195 182 167 156 157 189 201 219 189 193 190 165 150 136 129
121 135 143 161 179 194 194 179 181 172 163 156 147 155 170 181 170 159 166 159 159 139 124 140 154 160 155 157 130 133 135 137 144 143 145 153 160 172 178 179 180 180 200 196 213 220 239 240 240 238 231 229 219 243 237 239 249 239 255 278 296 282 286 262 257 236 224 220 220 218 218 229 243 271 296 269 233 198 206 220 201 200 186 191 219 200 180 187 175 160 159 156 143 139 130 117 124 124 123 120 123 132 137 140 140 139 139 139 140 143 141 140 139 138 131 123 136 138 130 134 141 139 141 152 159 177 153 148 140 132 123 123 120 120 119 110 111 120 119 133 137 124 145 134 139 124 116 103 103 95 86 79 79 81 78 79 80 79 78 66 59 63 77 49 40 40 40 40 40 40 40 40 40 40 40 40 40 40 40 40 49 48 58 61 66 81 88 83 79 78 83 96 103 110 115 136 140 138 133 119 121 129 139 140 138 135 141 154 160 178 200 239 220 234 224 201 181 189 185 173 167 159 159 159 161 172 158 130 135 119 122 130 142 154 160 138 161 160 148 176 171 165 179 144 140 140 167 180 199 225 258 217 194 211 264 305 333 301 275 234 239 228 269 256 242 214 184 157 139 119 120 134 138 156 148 140 139 139 155 160 163 172 154 143 133 136 148 138 131 139 139 140 134 157 159 165 164 153 139 127 134 142 139 136 137 159 162 148 139 128 117 108 125 135 120 122 138 125 115 125 140 139 140 129 131 139 142 141 140 140 140 138 137 139 144 157 177 218 224 200 173 156 157 139 143 166 185 174 157 159 160 183 155 160 143 129 128 129 133 138 130 148 183 214 264 267 212 199 176 214 244 254 236 238 240 241 243 259 240 215 201 194 177 154 158 171 197 199 205 202 156 151 143 130
122 141 156 184 183 199 197 188 183 195 183 158 150 155 164 181 179 184 180 181 152 139 129 134 162 161 160 160 151 149 159 150 136 158 162 160 161 162 174 180 179 183 189 193 199 201 225 239 261 259 263 241 237 241 241 259 259 259 265 273 305 322 299 284 270 258 227 219 203 212 217 217 225 244 236 259 221 190 189 203 189 193 197 221 201 202 222 193 172 159 161 159 152 139 128 114 120 120 120 119 135 129 136 137 140 139 140 140 140 140 140 140 140 140 128 119 136 133 125 136 140 155 155 155 159 155 148 139 137 129 120 122 119 120 112 106 120 118 118 126 126 117 140 121 135 143 120 122 120 107 95 96 101 81 76 74 74 72 69 67 80 77 80 60 49 42 66 40 40 40 40 40 40 40 40 40 40 40 40 40 40 57 67 80 76 71 80 80 82 88 99 93 98 111 123 130 123 117 118 116 121 125 138 139 138 126 138 159 160 177 194 220 245 258 222 199 189 219 201 205 179 158 153 150 147 153 147 132 126 121 118 119 137 139 140 142 140 141 161 172 148 159 165 145 140 162 180 187 196 237 216 183 173 207 242 284 304 284 276 230 210 220 235 233 223 219 202 160 149 134 125 118 139 159 143 138 137 139 144 155 173 175 154 126 121 127 137 125 133 139 134 132 141 160 160 158 160 145 134 120 120 140 139 137 135 162 154 136 135 129 123 122 109 119 116 135 133 124 115 138 138 135 132 125 129 136 137 152 152 144 140 140 139 135 134 138 152 177 212 214 185 153 160 144 139 143 150 179 157 155 170 183 160 158 143 134 129 124 125 125 127 153 176 186 223 215 185 168 171 216 261 234 222 217 224 232 225 238 233 206 203 190 169 159 142 141 158 160 168 182 179 176 159 129
137 154 169 180 182 178 184 189 201 201 182 175 153 160 181 180 180 179 178 151 153 138 139 129 140 148 159 182 160 164 167 154 138 153 159 162 161 157 160 165 179 180 178 183 191 200 212 220 240 275 283 266 242 261 247 255 260 281 285 328 342 344 319 318 301 282 240 219 210 197 201 207 212 216 215 213 200 193 179 181 180 177 191 199 179 182 216 208 178 161 157 158 154 138 118 118 111 115 115 111 119 119 124 131 136 137 140 140 139 140 141 140 139 137 130 119 120 120 138 139 142 156 160 145 149 155 156 136 134 135 127 117 115 110 103 100 121 110 111 116 119 116 115 132 141 137 139 121 114 105 99 98 100 95 83 78 79 79 78 78 79 80 74 64 61 75 41 40 40 40 40 40 40 40 40 40 40 40 40 40 46 62 64 78 103 82 79 78 80 83 89 96 99 104 108 107 107 107 109 113 118 120 122 126 137 119 128 137 146 152 160 180 231 280 232 216 200 209 217 198 173 158 145 139 135 134 140 133 124 120 118 118 135 140 138 143 140 141 148 158 153 139 141 138 135 158 173 164 205 213 186 161 170 191 223 234 267 288 248 227 212 194 203 203 196 207 181 153 151 148 128 117 153 154 140 139 136 140 139 171 181 160 158 122 123 137 129 116 126 137 130 141 145 142 141 141 143 140 142 120 120 138 140 137 135 159 162 141 135 133 132 131 121 99 116 123 129 113 116 119 124 124 122 125 130 136 140 146 155 140 140 139 140 138 139 133 140 156 170 189 181 155 137 137 140 139 139 146 148 158 163 179 177 192 172 148 139 126 121 120 122 125 134 155 177 169 161 153 179 229 258 210 192 194 191 192 194 210 207 193 201 196 190 180 171 150 138 149 157 183 160 173 142 124
132 144 156 147 170 181 159 175 195 202 199 187 159 160 178 180 179 167 159 168 164 138 140 136 140 141 152 167 159 168 178 178 146 152 160 159 160 161 170 180 179 178 180 184 197 197 205 219 234 254 279 282 279 281 259 253 258 275 289 327 352 327 288 290 290 259 240 227 221 202 192 201 200 199 200 197 196 184 183 177 179 174 176 182 160 179 180 201 179 160 140 140 139 129 150 160 146 117 114 107 109 114 120 127 136 139 139 141 138 141 144 141 140 140 140 124 117 119 136 139 140 143 149 138 140 140 138 138 128 138 134 120 119 119 103 98 103 99 100 103 107 112 131 144 156 123 120 121 105 100 99 99 100 95 83 80 81 85 83 79 79 76 62 60 62 50 40 40 40 40 40 40 40 40 40 40 40 40 40 40 51 58 65 80 91 80 81 81 79 80 81 87 92 95 99 100 100 102 111 120 119 120 117 120 116 117 119 131 140 140 150 169 207 242 235 219 200 190 184 175 161 155 143 139 133 129 128 127 123 120 118 116 134 138 163 159 158 156 137 154 139 140 141 137 130 140 140 158 185 196 167 157 200 241 222 248 284 290 260 221 213 202 180 188 176 175 186 156 115 116 123 140 179 167 160 140 133 140 138 164 163 146 157 141 155 159 132 117 111 127 125 132 134 140 144 147 140 140 138 118 119 128 140 140 133 133 147 136 132 136 146 138 132 122 99 118 111 117 120 120 120 119 121 130 134 138 140 140 137 134 136 137 140 140 141 142 123 124 143 148 154 155 135 134 138 135 136 142 157 158 154 168 174 183 176 146 141 141 124 120 118 117 116 123 132 134 129 151 184 227 236 195 172 166 175 175 179 189 184 179 184 199 201 180 184 164 140 137 143 160 143 156 135 119
118 140 135 141 161 158 158 164 182 183 199 193 159 170 178 182 181 160 180 181 182 144 150 140 132 140 146 157 165 179 179 161 153 139 153 160 160 160 167 177 180 180 180 181 188 193 200 220 229 240 257 280 279 280 262 258 278 278 281 288 305 287 266 257 260 237 225 218 220 199 191 189 183 180 187 185 179 175 199 173 179 170 159 160 160 160 177 179 181 163 159 154 138 139 140 143 159 136 139 119 105 107 124 128 139 141 141 139 136 145 154 148 140 140 139 129 118 116 117 123 139 140 137 134 136 139 140 137 119 122 119 120 114 110 103 100 97 100 99 100 103 132 138 158 148 122 116 109 99 99 99 100 100 95 85 80 80 80 83 79 79 77 63 56 40 40 40 53 40 40 40 40 40 40 40 40 40 40 46 40 64 56 81 78 76 78 79 81 84 86 90 92 92 99 98 100 102 111 116 119 119 119 114 114 112 114 119 126 137 140 154 168 212 229 218 198 192 179 175 161 158 154 145 143 140 140 138 121 120 119 116 117 122 129 138 161 160 162 147 139 145 162 179 160 130 140 140 148 162 172 155 156 185 206 216 237 266 240 231 236 245 227 215 182 181 158 143 153 112 123 138 150 154 169 152 139 129 136 144 160 159 155 137 140 153 141 108 121 125 122 123 148 158 159 164 147 138 130 121 117 138 144 160 144 158 136 125 121 123 134 146 145 139 128 113 98 99 120 120 120 118 118 129 139 139 140 140 139 134 130 131 137 140 140 160 155 131 118 126 129 130 140 131 123 123 136 140 156 182 177 165 158 173 181 155 142 139 140 137 123 119 122 121 119 113 114 120 145 175 197 201 187 163 157 166 180 180 179 175 176 186 197 207 205 174 161 161 137 137 136 141 141 119 120
110 123 126 139 143 146 156 160 174 176 196 194 160 158 174 200 180 171 180 180 176 154 159 138 135 139 161 160 179 181 179 174 174 141 152 150 155 161 161 163 170 180 176 180 179 191 197 217 220 245 260 279 261 275 272 280 293 284 275 261 269 265 250 242 245 240 219 216 201 199 212 194 180 178 178 180 181 165 180 165 171 170 157 160 161 155 180 163 160 159 159 160 141 140 137 135 140 140 140 132 117 108 110 124 139 138 129 135 140 139 159 153 143 138 140 135 123 119 115 125 139 139 138 131 133 139 137 140 131 117 116 114 105 100 100 99 94 100 96 96 103 134 143 135 143 119 117 103 99 99 100 92 94 89 83 80 80 79 78 77 77 77 62 56 63 40 40 40 40 40 40 40 40 40 40 40 40 40 51 59 45 48 81 74 75 82 85 88 94 98 99 99 96 96 101 103 112 120 119 119 118 114 109 107 107 115 121 134 139 155 185 181 201 225 239 221 197 184 179 160 158 160 158 144 140 138 140 130 119 118 114 117 121 123 128 135 147 155 139 140 158 164 163 138 120 120 141 157 159 153 140 140 159 169 180 204 217 218 196 206 225 262 221 199 180 159 139 128 111 119 131 140 140 156 149 133 125 124 142 133 135 146 132 132 137 143 106 126 128 121 122 147 153 153 155 145 136 129 117 113 138 187 198 160 162 160 140 121 118 119 115 116 120 113 100 109 121 120 120 114 118 119 135 140 145 151 136 131 128 124 132 159 139 147 160 163 144 128 115 122 120 126 125 120 131 137 150 175 180 182 184 177 176 186 181 164 154 158 139 142 135 142 137 122 112 112 125 136 146 175 154 152 148 139 163 173 168 167 176 182 203 198 190 200 202 186 161 147 135 132 139 120 120 120
102 100 117 135 134 143 159 155 160 163 180 186 166 159 168 178 180 179 181 183 179 150 137 139 162 140 156 159 180 180 181 181 179 156 144 175 170 173 160 173 181 172 174 176 179 187 197 212 218 240 260 260 264 265 258 272 283 280 271 250 257 254 242 239 235 237 225 221 206 208 234 225 219 197 179 173 173 160 157 160 160 160 151 139 139 140 155 161 159 157 155 158 159 140 140 129 121 127 127 134 118 105 111 120 121 121 128 157 149 140 150 146 141 141 136 132 136 118 112 119 140 137 136 134 127 139 135 123 122 120 116 114 108 114 119 110 97 93 96 95 101 107 115 121 120 116 100 100 97 96 97 80 79 81 80 80 80 79 80 78 76 59 59 49 40 40 40 40 40 40 40 40 40 40 40 40 40 40 40 40 40 71 82 60 70 85 99 100 98 100 100 99 100 100 99 102 109 116 120 117 117 106 101 102 105 113 120 140 147 166 183 225 246 255 257 240 219 197 195 168 158 154 144 141 135 139 130 129 122 115 111 116 119 120 122 123 122 127 145 167 179 172 139 139 141 117 140 152 162 161 139 137 142 152 158 161 175 181 174 183 205 238 217 200 178 145 134 132 114 113 125 129 135 139 138 126 124 135 134 120 132 131 124 129 136 141 99 117 122 115 131 140 135 140 140 138 129 145 120 106 131 179 181 161 165 154 133 125 135 145 130 116 104 102 100 123 118 120 120 111 113 115 136 138 151 139 133 123 122 121 127 135 137 149 156 173 148 141 116 116 119 121 120 117 131 151 155 169 175 171 160 173 159 170 160 162 176 172 154 162 151 161 148 125 115 108 119 128 133 148 141 132 133 135 143 150 157 169 179 192 201 194 165 167 181 190 172 148 135 130 125 120 116 116
104 112 114 116 123 136 160 149 161 179 196 191 173 159 169 185 180 180 173 160 159 146 140 137 142 157 159 180 174 172 179 179 178 172 151 165 180 183 187 185 180 201 198 197 188 180 215 234 237 240 243 249 239 241 244 274 267 299 281 264 237 237 240 232 226 228 220 219 218 220 233 251 258 231 229 218 187 199 187 167 154 158 149 151 147 138 139 142 139 141 157 139 140 140 120 122 117 119 117 118 110 106 115 112 119 122 137 153 159 159 151 139 138 137 132 120 139 113 125 139 137 129 132 139 140 118 118 120 118 119 119 119 120 120 119 121 102 93 87 91 96 98 107 119 118 114 100 98 97 99 84 80 79 78 80 80 80 80 80 79 79 74 78 80 60 40 56 40 40 40 40 40 40 40 40 40 40 40 40 40 42 59 69 58 63 77 103 102 100 100 99 97 98 99 100 100 100 100 103 99 102 99 99 100 107 118 122 143 162 166 208 240 258 295 292 257 225 220 200 173 159 161 143 137 147 150 140 140 140 115 110 113 115 119 120 120 119 118 147 165 160 161 162 148 117 117 141 139 145 154 140 139 133 138 143 147 159 160 159 167 186 225 207 182 155 140 165 182 146 111 117 120 120 133 122 118 126 139 131 118 119 119 119 124 127 135 121 98 108 122 141 138 130 138 141 128 120 118 100 101 119 159 150 138 162 139 163 166 159 156 128 108 99 103 98 109 116 119 121 119 108 118 118 139 136 136 135 120 119 120 121 128 137 146 150 180 159 141 135 114 118 119 120 116 126 142 155 150 160 163 159 155 159 145 152 163 173 176 183 195 172 153 146 128 117 108 105 121 124 129 126 119 123 132 141 140 161 171 191 208 212 198 168 156 152 169 180 163 162 140 122 120 121 119
121 117 148 133 148 130 141 145 160 182 195 196 176 164 175 200 201 201 200 183 160 149 139 154 142 157 159 158 158 170 176 177 181 162 169 154 160 163 172 174 198 204 211 201 200 196 191 213 247 259 226 226 244 248 246 254 262 261 275 259 257 224 227 222 219 234 217 215 215 219 219 240 250 263 269 228 208 211 211 178 157 153 155 172 167 159 138 135 134 136 135 140 134 139 120 139 140 133 115 109 104 103 104 120 128 138 140 140 158 160 158 143 140 141 127 119 120 111 120 140 131 119 122 126 119 119 115 116 116 119 119 120 119 106 108 103 100 97 87 87 99 99 100 121 120 115 120 111 99 97 83 80 79 76 78 79 80 80 79 77 78 76 81 76 47 40 40 40 40 40 40 40 40 40 40 40 40 40 44 40 40 40 49 58 58 69 80 100 99 98 96 92 93 96 97 99 99 98 99 98 100 99 99 101 109 119 139 151 161 184 179 217 238 257 282 268 244 229 191 177 160 156 142 155 159 160 149 139 130 116 109 109 111 114 118 120 117 116 129 139 160 150 144 138 114 121 128 133 159 150 140 139 127 141 133 134 138 148 160 158 176 197 228 192 164 159 153 148 158 125 108 109 116 121 114 123 131 140 132 119 117 119 121 122 119 105 96 97 112 131 139 141 124 137 141 134 120 105 97 103 120 143 136 137 157 154 195 192 155 136 117 121 112 101 98 109 120 120 121 117 106 121 139 140 123 136 141 138 118 117 119 130 160 158 147 166 147 140 136 119 108 109 117 121 120 135 143 140 173 173 150 137 162 142 138 155 156 165 206 206 166 147 137 131 118 109 104 115 118 118 116 116 119 122 130 139 163 183 202 219 224 210 177 152 139 148 156 160 141 138 125 116 120 113
139 122 154 146 159 148 134 138 146 165 177 196 185 170 172 192 183 189 187 180 172 154 138 159 156 152 157 156 174 182 184 209 201 181 181 182 161 162 176 176 186 201 199 202 212 216 193 219 225 222 218 229 265 273 281 290 274 239 240 241 238 218 240 220 218 220 217 219 211 214 222 240 244 279 259 227 219 219 213 180 160 194 206 200 181 178 157 159 152 141 135 131 135 124 133 140 136 136 117 121 113 103 104 119 134 140 146 163 160 157 152 142 140 136 124 120 115 113 110 113 118 116 117 120 118 115 114 112 110 116 118 118 113 100 99 98 99 98 97 85 89 95 103 122 119 104 114 101 93 96 79 80 80 75 75 80 80 78 80 79 67 62 67 56 58 42 40 40 40 40 40 40 40 40 40 40 58 46 40 57 40 40 40 41 58 61 81 89 88 85 85 84 86 91 97 100 99 96 96 98 99 96 97 101 113 133 143 159 159 179 197 195 221 234 264 294 262 230 188 176 163 157 159 161 158 152 144 135 132 127 116 108 107 107 110 113 113 118 119 142 138 140 128 120 110 120 119 145 153 139 139 140 119 131 136 181 155 140 140 157 160 174 191 188 186 167 145 128 147 140 133 114 106 109 124 136 136 134 125 115 119 122 121 122 98 98 118 116 121 141 141 132 117 120 136 124 122 101 96 99 118 125 121 134 162 168 182 175 156 134 120 119 116 106 99 113 119 120 118 109 100 121 139 120 122 139 141 124 121 115 118 149 162 152 144 157 138 139 129 121 118 104 120 118 120 120 124 159 168 162 154 139 164 156 136 137 148 153 189 189 189 154 140 140 124 112 105 107 109 109 109 110 114 116 118 132 151 167 200 209 219 198 185 163 144 138 140 156 141 127 119 114 111 111
138 135 136 157 161 143 137 154 159 161 171 172 183 175 167 179 179 178 178 180 179 160 140 158 160 159 156 161 170 177 179 196 199 202 190 203 181 175 182 189 197 190 199 199 220 220 198 199 205 212 222 235 260 274 299 304 267 250 232 220 220 220 229 219 218 220 219 220 212 210 220 225 228 265 251 233 214 216 208 181 176 189 214 221 218 221 207 201 169 184 169 167 149 141 140 137 130 119 121 121 120 100 116 120 121 130 139 159 155 151 140 140 140 140 131 122 119 111 107 106 107 109 112 117 118 110 120 107 100 105 112 118 112 104 100 97 96 99 97 88 78 85 96 103 121 107 97 89 81 80 77 79 79 74 69 79 75 79 79 77 65 60 57 40 40 50 40 40 40 40 40 40 40 40 40 40 40 56 50 77 80 63 74 40 60 63 80 80 78 80 80 79 81 85 96 99 96 93 94 98 100 94 99 104 120 139 159 197 180 187 200 200 230 257 279 289 261 218 195 180 170 156 174 168 143 138 137 139 140 140 140 122 120 114 106 103 105 118 120 126 135 140 136 140 130 109 121 119 133 125 163 125 119 152 158 157 170 174 177 167 157 158 167 179 176 180 163 130 120 139 129 111 101 124 139 140 135 129 123 118 115 105 117 119 96 101 120 134 145 141 141 140 132 100 123 120 105 96 104 113 115 118 121 139 171 201 190 144 130 121 120 112 106 102 99 115 121 118 112 103 100 140 143 117 130 142 131 119 116 114 122 140 144 132 137 136 130 126 120 119 119 101 103 116 103 120 115 133 157 141 140 135 160 142 138 136 138 149 158 163 166 174 144 141 123 116 108 102 103 104 106 119 120 119 119 120 128 140 163 179 204 188 181 169 142 135 140 138 160 135 121 116 108 118
176 161 163 180 162 161 159 151 160 160 160 162 178 178 158 181 181 181 178 177 181 155 159 158 161 180 161 159 167 174 185 199 199 200 201 200 197 178 178 197 200 212 200 211 213 224 214 227 237 245 257 261 253 259 275 280 291 277 234 220 216 218 220 212 216 220 219 218 218 200 218 216 221 247 235 239 224 198 199 189 213 212 212 220 241 237 241 226 211 217 210 207 162 145 139 135 136 127 129 122 116 100 107 121 120 135 140 141 138 140 140 140 138 136 128 121 116 117 112 104 102 103 106 111 119 111 110 104 99 100 101 119 112 116 106 97 88 96 99 82 77 94 99 100 100 103 89 85 80 80 79 76 73 68 64 66 70 79 79 76 63 60 60 63 40 40 40 40 40 40 40 40 40 40 40 40 40 62 40 40 78 81 74 62 60 63 72 75 79 79 81 79 80 81 89 93 90 87 88 94 96 92 99 114 138 156 159 187 207 229 236 237 233 263 244 257 234 200 180 178 163 179 177 155 160 149 140 141 138 132 127 120 124 116 107 102 100 100 111 120 123 141 158 152 120 105 108 116 117 123 132 118 141 153 160 160 179 202 199 180 183 174 183 170 155 143 133 138 125 120 110 99 110 119 132 135 130 124 120 120 120 103 103 88 93 96 122 157 161 160 147 136 136 107 107 120 100 95 113 141 125 120 129 149 164 146 160 128 120 120 118 110 99 93 96 115 120 120 111 99 101 139 117 129 144 137 121 120 114 112 119 137 131 121 123 120 120 119 119 118 119 122 101 97 95 98 99 115 121 119 119 122 126 120 134 139 139 141 139 150 159 159 138 138 138 124 112 100 100 101 105 115 119 120 119 118 120 123 132 154 181 175 183 179 150 133 131 133 146 139 132 124 108 119
183 203 215 208 177 158 141 145 160 155 157 156 157 163 156 176 181 178 171 163 159 160 150 156 159 179 175 162 180 183 180 185 193 206 205 198 197 200 190 202 199 203 219 220 229 239 227 245 263 252 245 240 239 247 260 269 298 278 264 229 216 213 219 203 207 220 220 213 200 199 201 211 217 220 220 209 212 197 189 213 240 251 245 254 239 227 228 217 220 219 219 204 177 169 159 145 150 154 139 121 120 113 96 121 118 119 128 137 138 139 139 140 139 139 124 119 121 120 118 109 100 100 100 102 102 99 101 99 100 96 98 107 104 99 97 94 85 80 82 81 78 85 95 99 94 96 89 82 80 78 79 75 69 65 63 61 57 70 72 69 64 50 58 58 62 61 40 40 40 40 40 40 40 40 40 40 40 40 40 40 62 75 80 73 62 64 67 71 74 79 75 74 77 79 82 83 80 80 82 85 89 93 106 121 145 165 190 223 237 242 212 217 219 242 221 233 228 228 189 176 199 181 173 159 159 160 147 138 144 152 140 140 127 116 107 102 100 100 99 109 120 134 123 135 122 107 102 120 133 115 116 133 142 137 144 175 179 206 192 201 193 187 205 179 157 149 143 144 125 121 98 100 106 115 120 124 124 120 119 120 119 102 80 102 120 106 116 141 145 137 143 131 114 106 98 98 87 96 108 139 124 118 132 140 134 117 144 124 120 122 119 120 98 91 103 120 120 118 109 96 100 113 116 141 139 119 119 118 112 125 147 138 118 114 114 115 117 117 116 117 118 121 130 111 111 115 98 97 120 116 131 139 117 117 120 139 139 140 138 151 179 162 140 136 140 128 110 100 98 100 113 112 113 116 116 117 118 132 129 136 146 152 161 163 155 131 119 129 152 157 145 127 111 106
162 183 200 197 178 163 148 135 143 137 140 159 150 150 156 166 161 177 179 170 170 180 156 155 159 174 171 170 177 183 200 202 219 230 225 213 199 198 199 221 206 196 201 205 213 221 230 241 260 244 239 258 256 266 266 284 280 253 258 238 216 205 218 199 209 220 219 219 199 201 217 220 216 220 221 206 198 204 219 225 258 284 283 258 238 208 200 200 221 210 185 172 179 180 158 140 158 152 140 115 116 105 97 117 133 141 140 140 140 140 140 140 138 135 130 127 127 120 117 124 108 119 98 99 100 102 96 96 96 92 99 99 114 101 100 99 87 80 78 76 76 80 95 100 92 85 92 85 84 83 81 77 67 63 62 60 60 60 52 53 59 46 42 40 51 40 40 40 40 40 40 40 40 40 40 40 40 40 40 40 42 61 79 79 71 65 64 65 64 74 63 69 80 79 80 78 80 101 83 92 100 96 103 117 149 179 181 199 240 226 195 205 198 211 210 211 241 242 204 192 200 186 179 178 160 160 155 151 144 143 140 137 122 119 108 101 100 100 99 102 115 116 119 118 120 111 98 116 131 111 121 127 142 155 159 151 163 169 177 190 200 219 219 192 189 188 175 180 156 159 123 98 100 103 112 124 120 117 115 119 101 90 81 91 95 96 102 122 124 122 120 118 104 99 87 95 82 96 112 120 125 100 120 114 113 121 138 132 116 100 102 107 84 93 107 119 116 103 96 94 102 116 132 146 124 118 121 113 110 128 155 141 112 109 111 113 114 115 115 116 117 125 141 120 117 130 111 93 90 107 128 124 113 128 126 125 136 137 146 156 188 191 160 139 127 119 111 103 96 100 116 121 115 113 116 119 121 138 141 139 138 139 140 153 161 135 118 125 129 152 159 131 117 107
139 163 141 153 156 153 139 133 125 133 127 142 140 135 161 176 158 174 178 174 158 181 158 155 157 159 161 168 180 176 185 194 203 222 219 197 187 181 199 200 201 180 203 197 202 221 229 228 230 230 250 281 279 275 283 269 258 240 245 239 209 199 221 206 200 218 217 219 199 212 220 220 219 219 220 206 200 214 219 241 251 266 274 248 219 202 199 204 206 201 180 160 157 160 160 139 142 154 144 116 100 98 97 115 119 123 137 138 140 140 139 140 139 137 140 136 140 135 131 121 119 116 100 98 100 101 97 92 94 91 93 101 109 99 100 100 94 87 88 78 74 100 94 94 81 81 97 97 93 94 98 96 83 81 60 59 68 70 45 40 40 40 40 40 40 40 40 40 40 40 40 40 40 40 40 40 40 40 40 40 40 40 68 80 74 60 62 59 59 60 58 65 71 78 77 76 83 97 95 92 96 100 99 114 130 142 154 179 216 226 198 182 191 200 192 220 219 223 207 198 200 199 180 180 179 168 159 160 152 138 135 132 118 115 104 100 99 99 99 101 109 113 119 120 117 119 103 110 120 110 113 129 129 168 183 161 158 161 188 193 219 213 194 178 197 199 201 177 157 151 134 120 96 97 96 98 100 103 108 119 104 95 78 77 76 80 82 93 120 119 100 104 100 95 82 81 79 95 115 120 117 96 100 95 107 120 121 115 101 100 100 84 83 93 109 118 107 98 93 105 113 121 141 126 112 121 119 118 122 107 115 120 112 106 115 117 117 116 116 117 118 122 140 153 126 118 119 120 100 90 110 107 120 139 142 142 139 140 156 173 183 168 153 139 132 121 116 109 104 96 104 115 117 116 116 119 120 130 137 140 140 140 138 136 130 122 119 119 120 128 132 128 132 109
133 144 140 130 126 143 140 126 119 120 142 140 131 139 170 171 154 144 160 157 154 178 161 171 160 158 159 160 166 179 181 200 215 233 236 205 201 179 180 186 190 177 179 200 202 210 218 217 221 248 259 265 257 249 274 267 256 230 226 239 215 201 218 198 198 220 219 203 198 222 218 220 220 220 220 216 212 225 246 249 234 217 220 218 199 191 180 178 193 185 180 166 140 145 159 148 139 122 132 136 121 94 101 108 120 120 134 139 141 140 140 138 140 139 140 140 140 140 137 122 119 121 138 115 97 95 93 96 99 101 90 96 101 113 119 102 100 101 101 80 71 77 80 81 80 80 80 93 90 91 97 98 92 87 78 75 79 75 64 61 55 40 40 40 40 40 40 40 40 40 40 40 40 40 40 40 40 40 40 40 40 40 72 80 75 64 60 44 55 56 79 80 79 73 75 82 89 96 100 100 95 99 100 112 121 135 150 162 169 193 189 173 183 202 184 197 215 221 214 198 191 181 178 177 178 181 165 156 153 145 140 142 124 118 102 98 98 99 100 101 104 108 114 115 115 120 110 102 107 108 140 155 159 177 203 175 169 158 185 201 219 215 204 203 214 200 191 170 180 189 169 173 131 107 94 93 93 96 96 119 119 113 103 106 97 92 80 75 92 98 97 100 99 102 100 83 84 99 121 117 121 87 88 99 116 122 120 124 100 92 98 83 81 92 110 122 94 92 100 114 120 121 122 104 106 121 119 119 120 120 106 103 101 107 120 120 119 118 116 118 120 128 140 148 131 116 117 119 124 111 83 79 112 116 116 116 120 135 167 156 167 140 139 142 140 137 124 108 97 95 101 110 117 118 117 119 120 120 119 124 137 141 140 139 126 119 118 117 120 116 115 124 143 119
122 123 119 140 116 137 132 120 115 136 127 117 129 139 161 159 159 140 157 160 149 155 163 180 179 161 159 159 168 180 180 187 197 220 242 219 201 197 176 180 178 183 201 206 240 244 242 227 217 231 232 239 240 258 274 248 260 253 219 219 203 218 213 200 196 219 220 209 196 211 204 212 218 220 221 243 253 231 261 282 248 223 198 187 178 170 159 171 185 168 179 160 144 140 159 160 161 149 116 126 122 95 98 115 120 128 140 144 144 140 140 138 136 137 139 139 138 139 138 122 131 140 119 113 99 100 106 100 99 99 91 90 106 120 119 113 99 99 97 84 69 68 72 76 80 98 77 80 81 79 86 94 97 100 90 81 80 75 59 60 60 58 40 40 40 40 40 40 40 40 40 40 40 40 40 40 40 40 40 40 40 49 63 58 65 44 40 53 68 77 79 80 80 81 77 83 95 100 99 99 101 99 100 105 118 123 146 158 159 165 174 162 169 194 176 203 205 198 193 193 198 188 179 179 174 160 154 142 142 143 139 124 119 118 107 100 97 98 100 100 100 102 106 108 108 107 105 96 98 107 122 136 161 182 180 184 202 180 178 188 199 198 222 215 234 225 199 180 203 211 225 218 188 161 130 120 101 95 91 102 118 119 116 115 111 106 92 76 71 71 76 81 91 92 83 83 73 92 119 107 98 79 101 101 109 122 120 116 82 80 76 83 80 83 107 115 90 89 105 118 117 120 109 99 104 114 120 120 120 115 103 99 99 103 115 118 118 118 117 118 120 131 141 120 139 117 109 110 115 116 125 90 83 90 95 102 118 124 140 155 136 130 131 148 162 160 132 102 92 97 101 108 115 120 117 118 119 120 118 119 126 140 137 140 141 127 120 118 115 113 113 119 126 119
120 119 116 122 120 122 119 120 112 123 114 112 135 142 159 147 139 139 139 159 140 150 158 172 160 160 160 161 171 177 180 186 202 243 239 220 219 202 192 173 177 181 198 207 242 244 226 203 215 233 239 252 249 272 261 237 253 242 220 207 193 223 220 197 196 208 219 208 191 198 203 215 214 215 220 236 257 256 260 279 235 223 214 218 211 200 184 153 154 163 160 150 153 135 160 151 145 135 107 120 109 101 88 114 130 140 141 162 148 139 139 139 135 131 134 135 136 139 138 134 138 141 140 120 103 121 120 113 100 96 93 84 116 118 119 111 97 84 82 78 67 64 59 60 78 85 76 77 80 79 80 100 99 118 101 83 77 74 63 59 60 59 41 40 40 40 40 40 40 40 40 40 40 40 40 40 40 40 40 40 56 72 59 53 40 40 67 76 79 80 80 80 80 82 79 81 90 95 98 100 100 97 103 109 113 115 121 144 159 159 164 160 160 159 175 200 217 194 180 179 187 181 177 161 159 158 154 138 138 137 134 122 120 120 116 99 98 98 97 98 100 100 101 102 101 97 91 94 92 103 117 151 168 163 189 181 174 175 175 187 192 196 219 218 243 245 220 211 232 257 241 218 175 157 144 121 109 100 96 90 104 119 119 119 114 101 96 78 89 91 81 70 65 69 64 60 68 79 103 97 84 79 79 100 112 118 116 106 86 72 78 76 80 83 111 99 88 94 101 109 103 99 98 101 105 114 118 120 116 112 101 98 99 103 110 114 116 117 118 118 119 121 120 112 115 117 100 100 98 100 106 96 80 79 78 91 100 115 125 162 144 120 119 135 145 145 119 89 96 99 101 106 111 114 116 122 122 120 119 117 120 120 125 134 121 120 120 120 115 111 114 118 119 119
120 118 119 107 104 120 119 107 104 123 99 107 121 143 163 140 136 138 138 143 139 143 151 157 157 159 160 171 175 178 180 198 203 232 242 225 200 199 180 172 174 178 200 216 242 231 200 202 242 240 241 256 262 268 244 222 236 260 239 218 191 208 214 196 212 220 206 209 196 205 233 244 232 219 219 239 265 280 282 274 263 243 239 241 249 219 211 175 182 147 138 129 118 122 141 144 138 136 112 117 120 103 88 107 126 137 167 160 141 140 137 136 133 129 129 131 133 136 137 136 134 129 120 119 114 120 120 103 100 99 96 82 94 99 99 95 81 80 77 71 74 72 59 61 81 82 79 71 77 77 79 93 104 122 98 84 79 80 69 60 62 60 40 40 40 40 40 40 40 40 40 40 40 40 40 40 40 40 43 40 60 75 40 40 40 61 74 80 80 80 80 80 83 94 90 81 88 92 97 99 101 109 123 133 129 128 122 122 136 143 150 155 178 179 182 193 181 182 179 174 179 180 175 168 160 161 154 139 140 138 127 120 119 114 111 106 122 120 108 102 97 97 99 100 100 99 94 102 103 88 105 139 150 172 183 172 153 160 175 195 202 221 220 203 230 243 221 202 238 267 227 191 168 148 137 122 114 100 95 89 106 118 119 118 118 111 114 117 139 123 121 111 110 90 79 80 66 60 81 81 79 78 81 93 111 97 101 93 86 83 74 92 94 96 102 99 91 92 105 102 101 97 99 106 113 117 119 120 112 103 99 98 99 102 106 110 115 118 119 120 120 120 118 104 99 102 100 97 99 100 100 100 84 76 86 100 99 101 121 138 131 121 115 135 130 117 103 93 101 101 101 105 116 139 118 136 124 120 120 118 116 120 118 121 120 118 120 117 112 111 115 120 120 119
101 99 123 100 118 120 118 97 103 100 103 120 125 135 140 137 127 140 140 136 139 139 139 147 160 166 178 179 172 178 197 203 219 239 225 216 203 214 215 175 174 199 217 234 222 203 187 216 222 225 219 233 266 276 244 217 228 244 234 221 205 187 193 180 204 219 221 196 199 226 254 263 243 224 220 237 260 273 247 246 244 253 278 282 276 232 220 216 200 162 170 159 151 124 116 131 121 120 102 118 130 119 84 92 112 176 159 152 138 135 135 133 130 127 124 127 129 132 134 134 129 120 127 139 114 119 139 122 109 114 100 79 79 79 83 83 78 72 74 84 82 74 58 58 76 75 71 63 71 76 80 81 97 114 97 82 78 75 68 63 61 52 63 43 43 44 40 40 40 40 40 40 40 40 40 40 40 59 77 64 43 58 40 46 40 40 63 76 78 80 80 79 80 96 100 98 97 96 99 99 104 113 139 139 140 140 141 138 137 156 184 191 199 185 199 196 181 177 180 173 172 175 163 159 157 145 139 140 144 130 125 124 123 131 120 119 119 117 120 117 112 97 95 100 101 100 93 98 105 103 94 124 126 160 164 135 149 164 180 199 219 204 218 208 220 228 200 193 233 248 231 209 180 180 168 170 144 100 89 97 101 109 114 117 119 121 121 118 126 126 137 125 120 108 99 93 82 63 67 80 79 73 80 79 83 79 88 80 103 102 79 75 102 100 99 97 90 108 116 100 93 97 104 113 120 119 116 108 101 99 97 96 99 101 103 108 116 126 120 120 119 107 104 99 100 99 100 98 98 100 100 96 83 77 93 118 107 112 119 110 102 103 102 119 116 108 99 86 101 100 100 105 131 126 120 123 118 120 120 118 115 114 119 119 119 118 114 105 109 115 118 119 120 120
71 101 101 96 102 107 119 92 104 102 121 121 128 119 128 121 120 125 131 161 159 139 174 168 155 159 158 171 165 179 182 201 200 231 240 240 215 194 206 185 161 202 197 221 199 213 180 199 199 214 217 225 261 263 233 219 222 241 264 276 240 210 213 181 190 220 200 185 206 239 245 253 237 237 233 240 260 259 238 230 221 226 256 253 244 208 200 197 182 181 173 162 157 153 128 100 116 91 85 94 94 89 80 79 103 145 141 137 135 132 134 131 127 124 122 122 124 128 132 136 137 139 141 136 116 126 134 123 117 118 100 104 87 82 79 80 76 80 86 99 92 82 70 60 57 59 60 60 67 80 79 79 96 98 102 101 82 73 65 60 58 62 56 48 58 60 43 40 40 40 40 40 40 40 40 40 40 50 79 42 40 40 40 65 59 40 45 66 69 72 76 80 83 111 107 101 98 119 131 105 115 115 136 140 160 147 160 158 152 162 181 193 200 203 199 202 179 173 165 161 158 160 179 160 158 140 141 142 139 140 157 142 155 147 140 120 120 119 125 127 120 118 109 94 94 95 93 95 100 107 98 100 114 148 158 123 125 141 163 177 178 180 221 217 195 204 180 185 241 246 209 200 219 211 204 202 157 101 90 100 98 110 119 124 124 119 118 120 120 115 118 123 115 120 114 102 102 81 55 57 61 78 80 80 78 80 98 101 99 99 79 75 95 100 99 92 86 116 101 98 90 101 111 117 120 119 109 99 97 96 95 94 96 100 100 108 127 141 129 119 107 98 100 100 98 98 96 93 100 99 111 110 105 77 81 94 102 118 120 117 100 98 100 98 104 107 99 80 95 100 100 104 122 120 115 119 128 130 123 121 116 110 110 111 112 109 105 103 111 119 120 120 120 119
58 80 93 81 101 99 100 99 122 139 125 103 119 111 116 117 122 140 151 156 179 150 156 159 160 170 180 176 162 161 180 191 210 229 219 208 202 197 177 182 160 180 195 202 191 196 177 200 223 233 238 233 254 239 224 212 209 239 280 272 251 214 200 182 202 209 182 188 205 205 219 228 215 238 230 225 253 238 236 210 207 226 262 257 224 204 198 171 158 180 158 155 159 162 165 132 104 81 79 79 77 80 100 89 96 127 140 132 124 139 134 129 124 120 120 119 121 125 131 136 139 140 139 139 129 129 120 119 138 115 99 119 96 89 97 92 79 86 95 100 97 106 89 75 57 57 54 57 69 80 79 80 94 100 110 115 87 79 70 67 67 64 61 59 60 60 40 40 50 40 40 40 40 40 40 40 40 40 58 40 40 40 62 59 63 60 63 59 61 66 70 75 79 97 112 101 101 117 121 123 124 122 124 157 157 170 160 159 156 157 166 184 222 203 187 178 178 180 169 158 157 156 160 156 155 155 159 159 155 145 159 160 159 149 134 133 130 125 136 128 118 121 115 135 115 103 98 98 101 107 106 87 107 130 129 109 119 139 142 155 178 205 216 179 200 209 175 161 214 227 184 192 208 212 202 180 157 103 88 97 113 120 119 121 122 116 122 140 142 112 100 102 102 111 108 101 100 86 71 52 56 60 65 63 62 69 79 84 82 68 65 79 91 99 100 88 95 100 89 87 89 107 117 118 118 116 103 98 96 94 93 93 94 99 101 112 139 141 122 114 110 99 99 100 100 96 90 102 101 99 99 102 107 102 76 77 99 100 117 113 106 97 100 100 95 102 92 80 98 100 100 99 103 114 120 121 140 140 142 145 142 119 104 103 103 102 101 100 113 119 118 120 119 118
49 57 66 76 82 76 78 100 115 140 117 99 121 123 117 141 130 139 158 184 181 157 178 186 179 175 179 180 177 158 188 198 220 245 217 197 183 182 176 193 177 172 185 182 170 178 177 200 224 240 240 247 232 215 220 214 201 225 247 240 244 220 204 176 203 219 197 184 198 198 207 231 215 209 209 222 221 209 222 197 209 222 241 260 231 222 199 171 150 163 162 158 137 143 160 141 124 96 75 76 102 107 120 121 133 120 120 119 119 128 130 127 122 120 119 119 120 123 128 134 139 140 138 141 123 118 119 113 121 115 117 105 102 99 100 100 88 95 101 103 99 110 98 93 84 83 57 56 68 69 81 69 84 121 117 129 99 99 79 79 79 73 63 60 60 56 40 62 50 40 40 40 40 40 40 40 40 40 40 40 40 40 59 69 73 74 74 63 66 72 81 79 82 93 97 100 102 116 134 143 142 140 139 140 144 161 153 160 159 160 163 198 195 183 180 176 176 178 180 168 158 160 155 155 155 165 180 168 171 170 160 160 158 135 140 138 140 140 140 126 131 120 137 165 140 139 121 110 110 112 108 106 88 102 100 119 134 160 177 176 185 193 195 175 221 236 196 170 166 197 161 161 193 201 175 140 134 96 89 103 124 126 113 108 110 130 159 169 147 120 116 100 95 98 100 96 82 80 76 50 61 77 68 63 61 57 59 60 64 71 79 80 89 97 100 83 97 95 94 104 97 121 119 115 110 105 100 98 96 94 92 92 100 111 114 132 134 117 105 110 120 101 99 99 100 98 83 102 100 99 98 93 91 89 79 71 93 100 100 97 88 89 97 100 99 84 82 80 99 100 97 100 104 114 119 128 139 131 139 144 138 117 108 99 100 100 99 99 106 117 115 119 118 116
53 52 51 57 61 58 66 100 124 114 95 117 123 140 152 153 141 136 162 158 179 175 181 179 173 162 162 165 164 158 167 196 220 246 242 214 190 198 176 169 178 158 165 177 191 216 200 191 204 219 219 236 233 217 215 205 196 198 216 213 221 221 209 179 185 220 204 177 185 202 214 224 236 216 197 199 220 204 193 194 227 254 232 216 209 194 196 161 144 140 144 156 145 138 160 124 102 104 81 75 85 95 108 114 109 121 134 130 130 128 130 127 122 120 117 119 120 121 124 128 136 135 139 133 120 117 119 112 104 120 120 118 119 112 99 97 94 102 119 121 100 112 119 121 119 83 59 51 62 59 61 62 82 109 124 142 121 106 85 78 80 75 69 72 64 62 44 67 40 40 40 40 40 40 40 40 40 40 40 40 40 40 45 68 76 80 79 73 64 80 80 81 88 100 119 93 103 120 141 128 136 139 139 139 140 137 139 158 159 154 157 180 172 174 171 171 174 177 180 179 180 164 160 163 156 159 164 180 179 165 158 154 143 159 158 140 140 139 137 128 137 131 150 171 177 178 151 126 120 118 105 103 96 86 99 106 115 163 177 160 159 178 158 189 227 237 237 194 139 163 149 149 151 175 168 138 113 99 90 113 144 133 106 101 99 131 151 163 139 136 123 134 113 105 85 82 80 75 81 70 53 77 81 86 95 104 96 94 95 100 92 89 91 94 92 81 82 85 80 117 117 119 120 112 103 101 100 99 97 96 91 91 103 116 132 155 142 103 97 106 111 102 100 100 96 96 80 78 99 100 99 79 79 75 72 69 79 93 85 80 78 79 84 94 83 79 78 83 95 94 100 100 104 110 116 120 118 123 139 147 141 133 118 113 101 99 99 99 102 105 115 119 117 114
64 81 57 74 71 85 60 83 78 78 80 120 141 158 171 182 166 138 149 160 168 178 201 176 159 159 160 160 154 157 161 192 221 225 238 239 221 206 194 193 158 160 205 218 219 221 221 213 201 221 218 244 260 243 231 230 220 202 194 220 206 201 220 188 176 188 182 175 190 202 217 210 225 218 198 184 182 191 176 194 229 242 240 239 228 202 161 159 151 134 125 123 120 140 138 119 132 155 137 102 77 100 115 100 120 136 153 160 156 137 137 129 119 119 116 118 119 120 120 120 119 121 130 138 121 116 111 100 99 107 120 120 120 99 107 100 95 113 127 124 119 120 117 100 113 109 68 51 58 60 61 65 79 96 101 139 144 122 105 73 70 65 59 57 60 60 61 79 46 40 40 40 40 40 40 40 40 40 40 40 40 40 40 52 67 79 78 63 67 82 97 97 97 97 100 98 100 126 138 118 131 137 122 124 125 124 139 144 164 149 157 160 160 160 162 167 174 182 180 183 179 174 161 167 174 157 169 177 160 159 155 158 161 158 155 146 139 140 139 134 139 134 159 198 202 177 149 141 122 115 106 99 101 90 93 99 109 133 127 154 159 172 139 191 223 199 218 214 164 121 100 114 103 107 118 117 97 103 88 109 155 141 100 100 101 111 128 145 120 117 113 120 121 119 93 94 91 93 103 78 59 60 77 78 79 105 123 99 116 122 101 98 95 93 91 84 79 79 78 80 109 120 112 105 100 100 100 99 99 100 95 102 105 115 153 159 134 113 98 109 103 101 99 95 84 76 73 72 85 96 101 101 77 70 66 68 75 78 76 77 79 80 80 75 81 82 83 84 88 98 99 100 101 105 107 106 111 121 117 131 125 119 121 112 103 99 97 98 99 104 119 119 116 111
95 81 83 90 79 102 97 84 88 122 106 113 126 146 157 175 156 145 149 181 181 179 178 173 163 161 160 153 177 176 173 176 193 215 220 207 219 221 221 198 159 160 204 202 218 200 214 222 224 218 240 262 271 245 241 233 206 204 189 236 199 217 211 192 174 175 176 183 198 196 201 200 214 222 200 193 189 175 176 200 223 214 239 239 212 179 158 148 163 164 145 120 101 137 118 146 158 159 134 96 76 99 91 110 135 147 160 155 144 158 144 129 120 116 115 117 119 119 123 124 123 122 118 135 120 120 120 101 100 99 105 113 115 117 119 100 98 100 121 131 120 120 122 101 99 100 79 55 49 55 54 65 78 79 91 121 144 119 86 72 73 58 57 53 60 61 42 60 40 40 40 40 40 40 40 40 40 40 40 40 40 40 40 52 54 76 80 79 68 79 97 100 100 100 100 101 100 111 127 114 124 131 117 118 117 121 130 142 165 139 161 157 155 156 159 170 181 201 215 209 193 179 170 181 177 159 175 176 165 160 160 160 160 159 159 159 154 159 140 139 137 136 143 159 166 157 140 140 128 143 125 115 104 97 86 91 100 102 133 139 142 174 131 171 198 171 168 199 192 161 135 71 73 77 78 76 94 116 91 101 148 130 98 100 90 102 128 143 109 101 103 113 105 106 101 119 100 95 92 83 60 47 69 87 86 88 104 96 120 105 100 99 97 93 97 100 85 82 81 78 85 104 101 100 99 100 100 103 105 101 93 103 108 122 159 155 133 112 95 110 102 86 83 78 76 72 69 68 70 77 103 98 102 88 66 67 69 71 74 78 80 83 74 78 81 81 81 90 100 98 99 99 99 99 101 100 99 109 104 101 106 108 110 99 98 99 97 95 99 120 120 119 113 108
121 97 108 104 120 106 139 107 82 128 124 117 119 123 155 181 170 150 155 157 159 187 204 180 170 181 159 151 159 156 166 180 179 203 198 200 200 207 219 200 174 149 169 188 199 212 220 222 259 257 246 263 238 237 227 214 203 196 183 206 186 215 208 201 198 170 172 198 218 221 219 226 234 239 222 226 196 165 165 203 204 197 231 240 211 180 163 147 139 142 150 134 104 105 136 161 137 149 141 106 75 80 117 133 138 136 160 159 137 146 140 124 120 114 112 121 124 128 133 137 135 140 125 120 119 111 100 97 96 98 100 101 109 103 114 119 115 99 120 140 120 117 112 100 88 80 67 64 40 41 40 60 82 76 99 122 115 90 77 63 72 79 61 50 64 65 40 51 40 40 40 40 40 40 40 40 40 40 40 40 56 40 52 77 99 72 80 82 80 78 94 98 97 100 120 119 121 109 104 106 119 114 118 127 140 139 130 134 141 139 143 154 176 160 159 175 202 221 244 215 194 182 178 180 180 167 175 180 175 165 160 160 160 160 159 160 160 161 145 140 138 140 139 149 162 179 158 142 148 160 141 120 118 112 95 86 96 102 110 121 141 147 136 171 209 200 150 156 177 163 106 77 74 100 113 106 100 79 90 98 137 116 99 96 84 100 127 125 119 98 97 96 101 101 100 108 100 99 79 79 52 59 99 89 99 97 94 100 100 99 99 99 94 91 102 104 86 81 79 77 100 109 102 99 98 98 101 111 116 101 92 100 115 144 159 136 118 110 87 89 81 77 75 71 68 66 65 68 71 74 77 80 87 75 65 65 68 72 75 79 81 83 83 73 75 79 94 103 99 97 98 101 102 104 104 101 99 100 99 100 100 99 105 105 99 94 93 95 101 113 120 116 109 104
